# .PCD v0.7 - Point Cloud Data file format
VERSION 0.7
FIELDS x y z
SIZE 4 4 4
TYPE F F F
COUNT 1 1 1
WIDTH 3460
HEIGHT 1
VIEWPOINT 0 0 0 1 0 0 0
POINTS 3460
DATA ascii
3329 0 18839
3341 0 18834
3356 0 18827
3371 0 18816
3385 0 18809
3398 0 18802
3410 0 18795
3427 0 18789
3440 0 18784
3454 0 18779
3467 0 18775
3483 0 18771
3497 0 18769
3510 0 18767
3524 0 18767
3538 0 18767
3552 0 18768
3566 0 18769
3580 0 18770
3594 0 18771
3607 0 18770
3621 0 18769
3635 0 18768
3648 0 18768
3662 0 18768
3676 0 18769
3690 0 18770
3704 0 18771
3718 0 18771
3732 0 18771
3746 0 18771
3760 0 18770
3774 0 18769
3788 0 18769
3801 0 18768
3815 0 18769
3829 0 18769
3843 0 18770
3856 0 18771
3870 0 18772
3884 0 18773
3898 0 18774
3912 0 18774
3926 0 18775
3940 0 18776
3953 0 18777
3967 0 18778
3981 0 18779
3995 0 18780
4009 0 18780
4023 0 18780
4036 0 18780
4050 0 18781
4063 0 18781
4077 0 18782
4092 0 18783
4106 0 18784
4120 0 18784
4133 0 18784
4147 0 18784
4162 0 18783
4176 0 18781
4190 0 18780
4204 0 18778
4217 0 18777
4231 0 18777
4244 0 18779
4257 0 18781
4271 0 18784
4284 0 18786
4300 0 18789
4313 0 18790
4327 0 18791
4341 0 18792
4355 0 18792
4369 0 18792
4383 0 18793
4396 0 18793
4410 0 18794
4424 0 18794
4438 0 18794
4451 0 18794
4465 0 18794
4479 0 18793
4493 0 18793
4507 0 18792
4521 0 18791
4535 0 18790
4549 0 18789
4564 0 18789
4577 0 18788
4591 0 18787
4605 0 18786
4619 0 18786
4633 0 18785
4646 0 18785
4660 0 18785
4674 0 18786
4687 0 18788
4701 0 18789
4716 0 18791
4729 0 18793
4743 0 18794
4757 0 18794
4770 0 18794
4784 0 18794
4798 0 18794
4812 0 18795
4826 0 18795
4840 0 18796
4854 0 18798
4867 0 18799
4881 0 18800
4895 0 18800
4909 0 18801
4923 0 18801
4936 0 18801
4950 0 18801
4964 0 18801
4978 0 18801
4992 0 18801
5006 0 18801
5020 0 18801
5034 0 18801
5048 0 18801
5062 0 18802
5075 0 18802
5089 0 18802
5103 0 18803
5117 0 18803
5131 0 18804
5144 0 18805
5158 0 18805
5172 0 18806
5186 0 18805
5200 0 18805
5213 0 18804
5227 0 18804
5241 0 18803
5255 0 18803
5269 0 18804
5283 0 18805
5297 0 18806
5311 0 18807
5325 0 18809
5338 0 18810
5352 0 18811
5366 0 18812
5379 0 18812
5393 0 18812
5407 0 18812
5421 0 18812
5435 0 18812
5449 0 18813
5463 0 18813
5477 0 18813
5490 0 18813
5504 0 18813
5518 0 18812
5532 0 18812
5546 0 18811
5560 0 18811
5574 0 18810
5588 0 18810
5602 0 18810
5615 0 18811
5629 0 18812
5643 0 18813
5657 0 18814
5671 0 18816
5684 0 18817
5698 0 18818
5712 0 18818
5726 0 18818
5740 0 18817
5753 0 18816
5767 0 18815
5781 0 18814
5795 0 18814
5809 0 18814
5823 0 18814
5837 0 18815
5851 0 18816
5865 0 18818
5878 0 18819
5892 0 18820
5906 0 18821
5919 0 18822
5933 0 18822
5947 0 18823
5961 0 18823
5975 0 18823
5989 0 18823
6003 0 18823
6016 0 18823
6030 0 18823
6044 0 18823
6058 0 18824
6072 0 18825
6086 0 18826
6099 0 18826
6113 0 18827
6127 0 18827
6141 0 18827
6155 0 18827
6169 0 18827
6183 0 18827
6196 0 18826
6210 0 18826
6224 0 18825
6238 0 18825
6252 0 18824
6266 0 18824
6280 0 18824
6294 0 18824
6308 0 18824
6322 0 18825
6335 0 18826
6349 0 18827
6363 0 18828
6376 0 18829
6390 0 18830
6404 0 18830
6418 0 18830
6432 0 18830
6446 0 18831
6460 0 18831
6473 0 18832
6487 0 18833
6501 0 18834
6515 0 18835
6528 0 18835
6542 0 18835
6556 0 18835
6570 0 18835
6584 0 18834
6598 0 18834
6612 0 18833
6626 0 18833
6640 0 18833
6654 0 18834
6667 0 18834
6681 0 18835
6695 0 18836
6708 0 18838
6722 0 18839
6736 0 18840
6750 0 18841
6764 0 18841
6778 0 18841
6792 0 18840
6805 0 18840
6819 0 18840
6833 0 18840
6847 0 18841
6861 0 18842
6874 0 18844
6888 0 18845
6902 0 18846
6916 0 18847
6929 0 18848
6943 0 18848
6957 0 18848
6971 0 18849
6985 0 18849
6999 0 18849
7013 0 18849
7027 0 18848
7041 0 18848
7054 0 18847
7068 0 18847
7082 0 18846
7096 0 18845
7110 0 18845
7124 0 18846
7138 0 18846
7151 0 18846
7165 0 18847
7179 0 18848
7193 0 18849
7206 0 18850
7220 0 18851
7234 0 18852
7248 0 18852
7262 0 18852
7276 0 18852
7290 0 18852
7303 0 18852
7317 0 18852
7331 0 18851
7345 0 18851
7359 0 18852
7373 0 18852
7387 0 18852
7400 0 18852
7414 0 18853
7428 0 18853
7442 0 18853
7456 0 18853
7470 0 18854
7483 0 18854
7497 0 18854
7511 0 18855
7525 0 18855
7539 0 18854
7553 0 18854
7567 0 18854
7580 0 18854
7594 0 18854
7608 0 18854
7622 0 18854
7636 0 18854
7650 0 18855
7664 0 18855
7677 0 18855
7691 0 18856
7705 0 18856
7719 0 18857
7732 0 18858
7746 0 18860
7760 0 18861
7774 0 18862
7788 0 18862
7802 0 18863
7816 0 18862
7829 0 18861
7843 0 18860
7857 0 18859
7871 0 18858
7885 0 18858
7899 0 18858
7913 0 18859
7926 0 18860
7940 0 18861
7954 0 18862
7968 0 18863
7981 0 18864
7995 0 18864
8009 0 18864
8023 0 18864
8037 0 18864
8051 0 18863
8065 0 18863
8079 0 18863
8093 0 18863
8106 0 18864
8120 0 18864
8134 0 18866
8147 0 18867
8161 0 18868
8175 0 18869
8189 0 18869
8203 0 18870
8217 0 18870
8231 0 18870
8244 0 18871
8258 0 18871
8272 0 18871
8286 0 18872
8299 0 18873
8313 0 18873
8327 0 18874
8341 0 18874
8355 0 18874
8368 0 18875
8382 0 18875
8396 0 18876
8410 0 18876
8424 0 18876
8438 0 18876
8452 0 18876
8466 0 18876
8480 0 18876
8493 0 18876
8507 0 18876
8521 0 18876
8534 0 18877
8548 0 18877
8562 0 18879
8575 0 18880
8590 0 18881
8604 0 18883
8618 0 18884
8631 0 18885
8645 0 18885
8658 0 18885
8672 0 18884
8686 0 18883
8700 0 18882
8714 0 18881
8728 0 18882
8742 0 18882
8756 0 18883
8770 0 18883
8784 0 18884
8798 0 18884
8812 0 18884
8826 0 18883
8839 0 18882
8853 0 18882
8867 0 18882
8881 0 18882
8894 0 18883
8908 0 18883
8922 0 18884
8936 0 18885
8950 0 18885
8963 0 18886
8977 0 18887
8991 0 18888
9004 0 18889
9018 0 18890
9031 0 18892
9046 0 18893
9060 0 18894
9073 0 18894
9087 0 18894
9101 0 18894
9115 0 18894
9129 0 18894
9143 0 18893
9156 0 18893
9170 0 18892
9185 0 18891
9199 0 18891
9213 0 18890
9227 0 18890
9240 0 18889
9254 0 18890
9268 0 18890
9282 0 18891
9295 0 18893
9309 0 18893
9323 0 18894
9337 0 18894
9351 0 18895
9365 0 18895
9378 0 18895
9392 0 18895
9405 0 18897
9418 0 18898
9432 0 18900
9447 0 18901
9461 0 18902
9474 0 18902
9488 0 18903
9502 0 18902
9516 0 18902
9530 0 18902
9544 0 18902
9558 0 18901
9572 0 18901
9585 0 18902
9599 0 18902
9614 0 18902
9627 0 18903
9641 0 18904
9655 0 18906
9668 0 18907
9682 0 18907
9695 0 18907
9709 0 18906
9723 0 18906
9737 0 18905
9751 0 18905
9765 0 18906
9779 0 18907
9793 0 18908
9807 0 18909
9820 0 18911
9834 0 18912
9847 0 18912
9861 0 18912
9875 0 18912
9889 0 18912
9903 0 18912
9917 0 18912
9930 0 18912
9944 0 18912
9958 0 18912
9972 0 18912
9986 0 18911
10000 0 18911
10014 0 18910
10028 0 18910
10042 0 18910
10056 0 18910
10069 0 18910
10083 0 18911
10097 0 18912
10110 0 18913
10125 0 18914
10139 0 18915
10152 0 18917
10166 0 18918
10180 0 18919
10193 0 18920
10207 0 18921
10220 0 18922
10234 0 18923
10248 0 18923
10262 0 18924
10276 0 18924
10290 0 18924
10304 0 18925
10317 0 18925
10331 0 18926
10345 0 18926
10358 0 18925
10372 0 18925
10386 0 18924
10400 0 18924
10414 0 18924
10428 0 18924
10442 0 18925
10456 0 18925
10469 0 18924
10483 0 18924
10497 0 18923
10511 0 18921
10526 0 18920
10540 0 18919
10554 0 18918
10568 0 18918
10581 0 18918
10595 0 18918
10608 0 18919
10622 0 18921
10635 0 18922
10650 0 18923
10664 0 18924
10678 0 18925
10691 0 18926
10705 0 18927
10719 0 18928
10732 0 18929
10746 0 18930
10760 0 18930
10774 0 18931
10787 0 18931
10801 0 18931
10815 0 18931
10829 0 18931
10843 0 18930
10857 0 18930
10871 0 18930
10885 0 18931
10898 0 18932
10912 0 18932
10926 0 18934
10940 0 18935
10953 0 18936
10967 0 18936
10981 0 18937
10995 0 18937
11008 0 18937
11022 0 18936
11036 0 18936
11050 0 18935
11064 0 18935
11078 0 18934
11092 0 18934
11106 0 18934
11120 0 18933
11134 0 18933
11148 0 18933
11162 0 18933
11175 0 18933
11189 0 18934
11203 0 18934
11217 0 18934
11231 0 18934
11244 0 18935
11258 0 18935
11272 0 18936
11285 0 18937
11299 0 18938
11313 0 18938
11327 0 18939
11341 0 18940
11355 0 18941
11368 0 18942
11382 0 18944
11396 0 18945
11409 0 18945
11423 0 18946
11437 0 18946
11450 0 18946
11464 0 18945
11478 0 18944
11492 0 18942
11506 0 18942
11521 0 18941
11534 0 18941
11548 0 18942
11562 0 18942
11576 0 18943
11590 0 18943
11604 0 18944
11617 0 18944
11631 0 18944
11645 0 18945
11659 0 18945
11673 0 18946
11686 0 18947
11700 0 18949
11714 0 18950
11727 0 18951
11741 0 18952
11755 0 18952
11768 0 18953
11782 0 18954
11796 0 18954
11810 0 18955
11824 0 18955
11837 0 18955
11851 0 18956
11865 0 18956
11879 0 18955
11893 0 18955
11906 0 18954
11920 0 18954
11934 0 18953
11949 0 18952
11963 0 18952
11977 0 18951
11991 0 18951
12004 0 18951
12018 0 18952
12031 0 18953
12046 0 18955
12059 0 18957
12073 0 18959
12086 0 18960
12100 0 18961
12114 0 18961
12127 0 18962
12141 0 18962
12155 0 18962
12169 0 18962
12183 0 18963
12197 0 18963
12210 0 18964
12224 0 18965
12238 0 18965
12252 0 18965
12266 0 18965
12279 0 18965
12293 0 18965
12307 0 18964
12321 0 18963
12335 0 18962
12349 0 18962
12363 0 18961
12377 0 18961
12391 0 18961
12405 0 18962
12418 0 18963
12432 0 18964
12446 0 18965
12459 0 18966
12473 0 18968
12487 0 18969
12501 0 18969
12514 0 18970
12528 0 18970
12542 0 18970
12556 0 18970
12570 0 18970
12584 0 18970
12597 0 18970
12611 0 18970
12625 0 18969
12639 0 18968
12653 0 18967
12667 0 18966
12681 0 18966
12695 0 18967
12709 0 18968
12723 0 18970
12736 0 18972
12749 0 18974
12763 0 18976
12776 0 18978
12790 0 18980
12803 0 18981
12817 0 18982
12831 0 18982
12845 0 18982
12859 0 18982
12873 0 18982
12887 0 18981
12901 0 18981
12915 0 18980
12928 0 18980
12942 0 18980
12956 0 18980
12970 0 18980
12984 0 18981
12997 0 18981
13011 0 18981
13025 0 18981
13039 0 18981
13053 0 18981
13067 0 18981
13081 0 18981
13094 0 18982
13108 0 18982
13122 0 18982
13136 0 18983
13150 0 18983
13163 0 18983
13177 0 18983
13191 0 18983
13205 0 18983
13219 0 18983
13233 0 18983
13247 0 18984
13260 0 18985
13274 0 18986
13288 0 18987
13301 0 18987
13315 0 18987
13329 0 18987
13343 0 18986
13357 0 18985
13372 0 18985
13385 0 18984
13399 0 18984
13412 0 18985
13426 0 18986
13440 0 18987
13454 0 18988
13468 0 18989
13481 0 18990
13495 0 18991
13509 0 18992
13522 0 18993
13536 0 18994
13550 0 18994
13563 0 18995
13577 0 18995
13591 0 18995
13605 0 18995
13619 0 18995
13633 0 18994
13647 0 18994
13661 0 18994
13674 0 18994
13688 0 18994
13702 0 18995
13716 0 18995
13730 0 18996
13743 0 18997
13757 0 18998
13771 0 18998
13784 0 18999
13798 0 19000
13812 0 19000
13826 0 19001
13840 0 19001
13853 0 19002
13867 0 19002
13881 0 19003
13895 0 19003
13908 0 19003
13922 0 19004
13936 0 19004
13950 0 19004
13964 0 19005
13977 0 19005
13991 0 19005
14005 0 19005
14019 0 19005
14033 0 19005
14051 0 18998
14064 0 18999
14078 0 18999
14092 0 19000
-32768 -32768 -32768
-32768 -32768 -32768
-32768 -32768 -32768
-32768 -32768 -32768
-32768 -32768 -32768
-32768 -32768 -32768
-32768 -32768 -32768
-32768 -32768 -32768
-32768 -32768 -32768
-32768 -32768 -32768
-32768 -32768 -32768
-32768 -32768 -32768
-13950 0 19440
-13936 0 19441
-13922 0 19441
-13908 0 19442
-13892 0 19442
-13878 0 19442
-13864 0 19442
-13850 0 19442
-13837 0 19442
-13823 0 19442
-13809 0 19442
-13796 0 19442
-13782 0 19443
-13768 0 19444
-13754 0 19445
-13740 0 19446
-13726 0 19447
-13713 0 19447
-13699 0 19448
-13685 0 19449
-13671 0 19449
-13657 0 19450
-13644 0 19449
-13630 0 19449
-13616 0 19449
-13603 0 19449
-13589 0 19449
-13575 0 19448
-13562 0 19449
-13548 0 19449
-13534 0 19449
-13521 0 19449
-13507 0 19449
-13493 0 19449
-13479 0 19449
-13466 0 19448
-13452 0 19448
-13438 0 19448
-13425 0 19448
-13411 0 19448
-13397 0 19448
-13384 0 19448
-13370 0 19448
-13356 0 19449
-13342 0 19449
-13328 0 19450
-13315 0 19451
-13301 0 19451
-13287 0 19452
-13273 0 19453
-13259 0 19454
-13245 0 19455
-13231 0 19456
-13218 0 19457
-13204 0 19458
-13190 0 19458
-13176 0 19458
-13163 0 19458
-13149 0 19458
-13135 0 19458
-13122 0 19458
-13108 0 19458
-13094 0 19459
-13080 0 19460
-13066 0 19460
-13053 0 19461
-13039 0 19461
-13025 0 19462
-13011 0 19462
-12998 0 19461
-12984 0 19461
-12971 0 19461
-12957 0 19460
-12943 0 19460
-12930 0 19459
-12916 0 19459
-12903 0 19458
-12889 0 19458
-12875 0 19457
-12862 0 19457
-12848 0 19458
-12834 0 19458
-12820 0 19459
-12806 0 19460
-12792 0 19461
-12778 0 19462
-12765 0 19463
-12751 0 19463
-12737 0 19463
-12723 0 19464
-12710 0 19464
-12696 0 19464
-12682 0 19465
-12668 0 19466
-12655 0 19466
-12641 0 19467
-12627 0 19467
-12613 0 19468
-12599 0 19468
-12586 0 19468
-12572 0 19468
-12558 0 19469
-12544 0 19469
-12531 0 19470
-12517 0 19471
-12503 0 19471
-12489 0 19472
-12476 0 19472
-12462 0 19472
-12448 0 19472
-12434 0 19472
-12421 0 19471
-12407 0 19471
-12393 0 19471
-12380 0 19471
-12366 0 19471
-12352 0 19471
-12339 0 19471
-12325 0 19472
-12311 0 19473
-12297 0 19474
-12283 0 19475
-12270 0 19476
-12256 0 19476
-12242 0 19477
-12228 0 19477
-12214 0 19478
-12201 0 19478
-12187 0 19478
-12173 0 19479
-12159 0 19479
-12146 0 19479
-12132 0 19480
-12118 0 19480
-12104 0 19481
-12091 0 19481
-12077 0 19482
-12063 0 19482
-12049 0 19483
-12036 0 19483
-12022 0 19483
-12008 0 19483
-11994 0 19483
-11981 0 19482
-11967 0 19482
-11954 0 19481
-11940 0 19482
-11926 0 19482
-11912 0 19482
-11898 0 19483
-11884 0 19484
-11870 0 19485
-11857 0 19486
-11843 0 19487
-11829 0 19488
-11815 0 19488
-11802 0 19488
-11789 0 19488
-11775 0 19487
-11762 0 19486
-11748 0 19485
-11734 0 19485
-11720 0 19486
-11707 0 19486
-11692 0 19486
-11679 0 19487
-11665 0 19488
-11651 0 19488
-11637 0 19489
-11623 0 19490
-11610 0 19490
-11596 0 19490
-11583 0 19490
-11569 0 19490
-11555 0 19490
-11542 0 19490
-11528 0 19490
-11514 0 19490
-11500 0 19490
-11487 0 19490
-11473 0 19490
-11459 0 19490
-11445 0 19490
-11432 0 19491
-11418 0 19491
-11404 0 19492
-11390 0 19493
-11376 0 19494
-11363 0 19495
-11349 0 19496
-11335 0 19496
-11321 0 19496
-11308 0 19496
-11294 0 19495
-11281 0 19495
-11267 0 19494
-11253 0 19494
-11240 0 19494
-11226 0 19494
-11212 0 19494
-11198 0 19495
-11184 0 19496
-11171 0 19496
-11157 0 19497
-11143 0 19497
-11129 0 19498
-11116 0 19498
-11102 0 19498
-11088 0 19498
-11075 0 19498
-11061 0 19499
-11047 0 19499
-11033 0 19499
-11020 0 19499
-11006 0 19499
-10992 0 19500
-10978 0 19500
-10965 0 19500
-10951 0 19501
-10937 0 19502
-10923 0 19503
-10909 0 19504
-10896 0 19505
-10882 0 19505
-10868 0 19506
-10854 0 19506
-10841 0 19506
-10827 0 19506
-10813 0 19506
-10800 0 19506
-10786 0 19506
-10772 0 19506
-10759 0 19506
-10745 0 19507
-10731 0 19508
-10717 0 19509
-10703 0 19509
-10690 0 19510
-10676 0 19510
-10662 0 19511
-10648 0 19511
-10634 0 19511
-10621 0 19512
-10607 0 19512
-10593 0 19512
-10579 0 19512
-10566 0 19512
-10552 0 19512
-10538 0 19512
-10525 0 19512
-10511 0 19512
-10498 0 19512
-10484 0 19512
-10470 0 19512
-10456 0 19513
-10443 0 19512
-10429 0 19512
-10415 0 19511
-10401 0 19511
-10388 0 19510
-10374 0 19510
-10361 0 19509
-10347 0 19510
-10334 0 19511
-10320 0 19513
-10306 0 19514
-10292 0 19516
-10278 0 19518
-10264 0 19519
-10250 0 19520
-10236 0 19520
-10222 0 19520
-10209 0 19520
-10195 0 19520
-10181 0 19519
-10168 0 19519
-10154 0 19519
-10141 0 19520
-10127 0 19520
-10113 0 19521
-10099 0 19521
-10086 0 19521
-10072 0 19522
-10058 0 19522
-10044 0 19522
-10030 0 19523
-10017 0 19523
-10003 0 19523
-9989 0 19523
-9976 0 19522
-9962 0 19522
-9948 0 19521
-9935 0 19521
-9921 0 19521
-9908 0 19521
-9894 0 19522
-9880 0 19523
-9866 0 19523
-9852 0 19525
-9838 0 19526
-9824 0 19527
-9811 0 19528
-9797 0 19529
-9783 0 19529
-9769 0 19530
-9756 0 19530
-9742 0 19531
-9728 0 19532
-9714 0 19532
-9701 0 19532
-9687 0 19533
-9673 0 19533
-9660 0 19533
-9646 0 19533
-9632 0 19533
-9618 0 19533
-9605 0 19533
-9591 0 19532
-9578 0 19532
-9564 0 19532
-9550 0 19532
-9536 0 19533
-9522 0 19533
-9509 0 19534
-9495 0 19535
-9481 0 19536
-9467 0 19536
-9454 0 19537
-9440 0 19536
-9426 0 19536
-9413 0 19536
-9399 0 19536
-9385 0 19536
-9372 0 19536
-9358 0 19536
-9344 0 19537
-9330 0 19538
-9317 0 19538
-9303 0 19539
-9289 0 19540
-9275 0 19541
-9262 0 19541
-9248 0 19542
-9234 0 19543
-9220 0 19543
-9206 0 19544
-9193 0 19544
-9179 0 19543
-9165 0 19543
-9152 0 19542
-9138 0 19542
-9125 0 19541
-9111 0 19541
-9097 0 19540
-9083 0 19540
-9070 0 19541
-9056 0 19541
-9042 0 19541
-9029 0 19542
-9015 0 19542
-9001 0 19542
-8988 0 19543
-8974 0 19543
-8960 0 19543
-8946 0 19543
-8933 0 19543
-8919 0 19543
-8905 0 19543
-8892 0 19544
-8878 0 19544
-8864 0 19545
-8850 0 19545
-8837 0 19545
-8823 0 19545
-8809 0 19546
-8795 0 19546
-8782 0 19546
-8768 0 19546
-8754 0 19547
-8740 0 19548
-8727 0 19549
-8713 0 19550
-8699 0 19551
-8686 0 19552
-8672 0 19552
-8658 0 19553
-8644 0 19553
-8630 0 19552
-8617 0 19552
-8603 0 19551
-8589 0 19551
-8576 0 19550
-8562 0 19550
-8549 0 19550
-8535 0 19550
-8521 0 19550
-8507 0 19550
-8494 0 19550
-8480 0 19550
-8466 0 19550
-8453 0 19550
-8439 0 19550
-8425 0 19550
-8412 0 19551
-8398 0 19551
-8384 0 19551
-8371 0 19551
-8357 0 19551
-8343 0 19552
-8329 0 19552
-8315 0 19552
-8302 0 19552
-8288 0 19553
-8274 0 19553
-8261 0 19554
-8247 0 19555
-8233 0 19556
-8219 0 19557
-8206 0 19557
-8192 0 19558
-8178 0 19558
-8164 0 19559
-8151 0 19560
-8137 0 19561
-8123 0 19562
-8110 0 19563
-8096 0 19564
-8081 0 19564
-8068 0 19564
-8054 0 19564
-8041 0 19564
-8027 0 19564
-8013 0 19563
-7999 0 19562
-7986 0 19562
-7972 0 19562
-7958 0 19562
-7945 0 19562
-7931 0 19562
-7917 0 19563
-7904 0 19562
-7890 0 19562
-7876 0 19562
-7863 0 19562
-7849 0 19562
-7836 0 19563
-7822 0 19564
-7808 0 19565
-7794 0 19567
-7780 0 19568
-7766 0 19569
-7752 0 19570
-7739 0 19571
-7725 0 19571
-7711 0 19571
-7698 0 19570
-7684 0 19570
-7670 0 19570
-7657 0 19570
-7643 0 19570
-7629 0 19571
-7615 0 19571
-7602 0 19572
-7588 0 19572
-7574 0 19572
-7560 0 19573
-7547 0 19573
-7533 0 19573
-7519 0 19573
-7506 0 19572
-7492 0 19572
-7479 0 19572
-7465 0 19572
-7451 0 19572
-7437 0 19572
-7424 0 19572
-7410 0 19572
-7396 0 19572
-7383 0 19572
-7369 0 19572
-7355 0 19573
-7341 0 19573
-7328 0 19573
-7314 0 19574
-7300 0 19575
-7286 0 19576
-7272 0 19577
-7259 0 19578
-7245 0 19579
-7231 0 19580
-7218 0 19581
-7204 0 19581
-7190 0 19581
-7176 0 19581
-7163 0 19581
-7149 0 19580
-7135 0 19580
-7122 0 19580
-7108 0 19580
-7094 0 19580
-7081 0 19580
-7067 0 19580
-7053 0 19580
-7040 0 19580
-7026 0 19580
-7012 0 19580
-6998 0 19580
-6985 0 19580
-6971 0 19581
-6957 0 19581
-6943 0 19582
-6930 0 19583
-6916 0 19584
-6902 0 19584
-6889 0 19585
-6875 0 19585
-6861 0 19586
-6848 0 19586
-6834 0 19586
-6820 0 19586
-6806 0 19587
-6793 0 19587
-6779 0 19588
-6765 0 19588
-6751 0 19589
-6738 0 19589
-6724 0 19590
-6710 0 19590
-6696 0 19590
-6683 0 19589
-6669 0 19589
-6656 0 19589
-6642 0 19589
-6628 0 19590
-6614 0 19590
-6601 0 19591
-6587 0 19592
-6573 0 19592
-6559 0 19593
-6546 0 19594
-6532 0 19594
-6518 0 19593
-6505 0 19593
-6491 0 19592
-6477 0 19591
-6464 0 19591
-6450 0 19591
-6436 0 19591
-6423 0 19591
-6409 0 19591
-6395 0 19592
-6382 0 19592
-6368 0 19593
-6354 0 19593
-6340 0 19594
-6327 0 19595
-6313 0 19596
-6299 0 19597
-6285 0 19598
-6272 0 19599
-6258 0 19600
-6244 0 19601
-6230 0 19602
-6216 0 19603
-6203 0 19603
-6189 0 19604
-6175 0 19605
-6161 0 19605
-6148 0 19606
-6134 0 19606
-6120 0 19606
-6106 0 19605
-6093 0 19605
-6079 0 19605
-6066 0 19604
-6052 0 19604
-6038 0 19604
-6025 0 19605
-6011 0 19605
-5997 0 19605
-5984 0 19606
-5970 0 19606
-5956 0 19606
-5943 0 19606
-5929 0 19607
-5915 0 19607
-5901 0 19608
-5888 0 19608
-5874 0 19609
-5860 0 19609
-5846 0 19609
-5832 0 19610
-5819 0 19610
-5805 0 19610
-5791 0 19610
-5777 0 19610
-5764 0 19610
-5750 0 19611
-5737 0 19611
-5723 0 19611
-5709 0 19611
-5696 0 19611
-5682 0 19611
-5668 0 19611
-5655 0 19612
-5641 0 19613
-5627 0 19613
-5613 0 19614
-5600 0 19615
-5586 0 19615
-5572 0 19616
-5558 0 19617
-5545 0 19618
-5531 0 19618
-5517 0 19619
-5503 0 19619
-5490 0 19619
-5476 0 19619
-5462 0 19619
-5449 0 19619
-5435 0 19619
-5421 0 19619
-5408 0 19619
-5394 0 19619
-5380 0 19619
-5367 0 19620
-5353 0 19620
-5339 0 19621
-5325 0 19622
-5312 0 19623
-5298 0 19623
-5284 0 19624
-5270 0 19624
-5257 0 19624
-5243 0 19623
-5229 0 19624
-5215 0 19624
-5201 0 19624
-5188 0 19625
-5174 0 19625
-5161 0 19625
-5147 0 19625
-5134 0 19624
-5120 0 19624
-5107 0 19623
-5093 0 19623
-5079 0 19622
-5065 0 19622
-5051 0 19622
-5038 0 19621
-5024 0 19621
-5011 0 19620
-4997 0 19620
-4983 0 19621
-4970 0 19622
-4956 0 19623
-4941 0 19624
-4928 0 19626
-4914 0 19627
-4900 0 19628
-4887 0 19629
-4873 0 19629
-4859 0 19629
-4846 0 19630
-4832 0 19630
-4818 0 19631
-4804 0 19632
-4791 0 19632
-4777 0 19633
-4763 0 19634
-4749 0 19635
-4736 0 19635
-4722 0 19636
-4708 0 19637
-4694 0 19638
-4681 0 19638
-4667 0 19639
-4653 0 19639
-4640 0 19640
-4626 0 19640
-4613 0 19640
-4599 0 19640
-4585 0 19640
-4572 0 19640
-4558 0 19641
-4544 0 19641
-4530 0 19641
-4517 0 19641
-4503 0 19641
-4489 0 19641
-4476 0 19640
-4462 0 19640
-4448 0 19640
-4435 0 19640
-4421 0 19640
-4407 0 19640
-4394 0 19640
-4380 0 19640
-4366 0 19641
-4352 0 19641
-4339 0 19641
-4325 0 19642
-4311 0 19642
-4297 0 19643
-4284 0 19644
-4270 0 19645
-4256 0 19646
-4243 0 19646
-4229 0 19647
-4215 0 19648
-4201 0 19648
-4188 0 19648
-4174 0 19649
-4160 0 19649
-4146 0 19649
-4133 0 19649
-4119 0 19649
-4105 0 19649
-4092 0 19649
-4078 0 19649
-4065 0 19649
-4051 0 19650
-4037 0 19650
-4024 0 19651
-4010 0 19652
-3996 0 19653
-3983 0 19654
-3969 0 19655
-3955 0 19655
-3941 0 19655
-3927 0 19655
-3913 0 19655
-3899 0 19654
-3886 0 19654
-3872 0 19653
-3858 0 19653
-3845 0 19652
-3831 0 19652
-3818 0 19653
-3804 0 19654
-3790 0 19655
-3777 0 19656
-3763 0 19657
-3749 0 19658
-3735 0 19658
-3721 0 19658
-3708 0 19658
-3694 0 19657
-3681 0 19656
-3667 0 19656
-3654 0 19656
-3640 0 19656
-3626 0 19656
-3612 0 19656
-3599 0 19657
-3585 0 19657
-3571 0 19657
-3558 0 19658
-3544 0 19658
-3530 0 19659
-3516 0 19659
-3503 0 19660
-3489 0 19660
-3475 0 19661
-3462 0 19661
-3448 0 19662
-3434 0 19662
-3421 0 19663
-3407 0 19663
-3393 0 19663
-3380 0 19664
-3366 0 19664
-3352 0 19664
-3338 0 19664
-3324 0 19664
-3311 0 19663
-3297 0 19663
-3283 0 19663
-3270 0 19664
-3256 0 19664
-3243 0 19665
-3229 0 19667
-3215 0 19668
-3202 0 19669
-3188 0 19670
-3174 0 19671
-3160 0 19671
-3146 0 19672
-3133 0 19672
-3119 0 19672
-3105 0 19672
-3091 0 19671
-3077 0 19671
-3064 0 19670
-3050 0 19670
-3036 0 19669
-3023 0 19669
-3009 0 19669
-2996 0 19669
-2982 0 19669
-2969 0 19669
-2955 0 19669
-2941 0 19670
-2928 0 19671
-2914 0 19671
-2900 0 19672
-2887 0 19672
-2873 0 19672
-2859 0 19673
-2845 0 19673
-2831 0 19674
-2817 0 19674
-2804 0 19675
-2790 0 19676
-2777 0 19676
-2763 0 19676
-2749 0 19677
-2736 0 19677
-2722 0 19678
-2708 0 19679
-2694 0 19679
-2681 0 19680
-2667 0 19680
-2653 0 19681
-2640 0 19681
-2626 0 19681
-2612 0 19682
-2598 0 19682
-2585 0 19682
-2571 0 19683
-2557 0 19683
-2544 0 19683
-2530 0 19683
-2516 0 19684
-2503 0 19684
-2489 0 19684
-2475 0 19685
-2461 0 19686
-2448 0 19686
-2434 0 19686
-2420 0 19685
-2407 0 19685
-2393 0 19684
-2380 0 19683
-2366 0 19683
-2352 0 19682
-2338 0 19682
-2325 0 19683
-2311 0 19683
-2297 0 19684
-2283 0 19685
-2270 0 19686
-2256 0 19688
-2242 0 19690
-2229 0 19691
-2215 0 19692
-2201 0 19693
-2188 0 19692
-2174 0 19692
-2160 0 19691
-2147 0 19690
-2133 0 19690
-2119 0 19690
-2105 0 19691
-2092 0 19692
-2078 0 19693
-2065 0 19694
-2051 0 19696
-2037 0 19697
-2023 0 19698
-2010 0 19698
-1996 0 19698
-1982 0 19698
-1968 0 19697
-1955 0 19697
-1941 0 19697
-1927 0 19697
-1914 0 19697
-1900 0 19698
-1886 0 19699
-1873 0 19699
-1859 0 19700
-1845 0 19700
-1831 0 19700
-1818 0 19700
-1804 0 19700
-1790 0 19701
-1777 0 19701
-1763 0 19701
-1749 0 19702
-1736 0 19702
-1722 0 19703
-1708 0 19703
-1695 0 19703
-1681 0 19703
-1667 0 19704
-1654 0 19704
-1640 0 19704
-1626 0 19704
-1612 0 19704
-1599 0 19705
-1585 0 19705
-1572 0 19706
-1558 0 19706
-1544 0 19706
-1530 0 19706
-1517 0 19706
-1503 0 19706
-1489 0 19705
-1475 0 19705
-1462 0 19705
-1448 0 19705
-1435 0 19706
-1421 0 19707
-1407 0 19708
-1394 0 19709
-1380 0 19710
-1366 0 19710
-1352 0 19711
-1338 0 19711
-1324 0 19710
-1311 0 19710
-1297 0 19709
-1284 0 19708
-1270 0 19707
-1256 0 19708
-1243 0 19708
-1230 0 19709
-1216 0 19710
-1202 0 19712
-1189 0 19713
-1175 0 19714
-1161 0 19714
-1147 0 19715
-1133 0 19715
-1120 0 19715
-1106 0 19715
-1092 0 19715
-1079 0 19716
-1065 0 19716
-1051 0 19717
-1038 0 19717
-1024 0 19717
-1010 0 19717
-996 0 19717
-982 0 19716
-968 0 19716
-955 0 19715
-941 0 19714
-928 0 19714
-914 0 19714
-900 0 19714
-887 0 19715
-873 0 19716
-860 0 19717
-846 0 19718
-832 0 19719
-819 0 19720
-805 0 19720
-791 0 19720
-777 0 19721
-764 0 19721
-750 0 19722
-736 0 19722
-723 0 19723
-709 0 19724
-695 0 19724
-681 0 19725
-668 0 19724
-654 0 19724
-640 0 19724
-627 0 19724
-613 0 19724
-600 0 19724
-586 0 19724
-572 0 19724
-558 0 19725
-545 0 19725
-531 0 19725
-517 0 19726
-503 0 19726
-490 0 19726
-476 0 19726
-462 0 19727
-449 0 19727
-435 0 19728
-422 0 19728
-408 0 19729
-394 0 19729
-380 0 19729
-367 0 19729
-353 0 19728
-339 0 19728
-326 0 19728
-312 0 19729
-299 0 19729
-285 0 19730
-271 0 19731
-257 0 19731
-243 0 19731
-230 0 19732
-216 0 19732
-202 0 19732
-188 0 19733
-175 0 19733
-161 0 19734
-148 0 19735
-134 0 19736
-120 0 19736
-107 0 19736
-93 0 19736
-79 0 19736
-65 0 19736
-52 0 19735
-38 0 19736
-25 0 19737
-10 0 19737
1 0 19738
15 0 19739
28 0 19739
42 0 19740
56 0 19740
69 0 19740
83 0 19740
97 0 19741
110 0 19741
124 0 19742
138 0 19743
151 0 19744
165 0 19744
179 0 19745
192 0 19744
206 0 19745
220 0 19745
233 0 19745
247 0 19745
261 0 19744
274 0 19745
288 0 19745
302 0 19745
316 0 19746
329 0 19746
343 0 19747
357 0 19747
371 0 19748
384 0 19749
398 0 19749
412 0 19749
425 0 19749
439 0 19749
452 0 19749
466 0 19748
480 0 19748
493 0 19748
507 0 19747
521 0 19747
535 0 19747
549 0 19747
562 0 19748
576 0 19750
589 0 19751
603 0 19752
617 0 19753
630 0 19754
644 0 19754
658 0 19755
671 0 19755
685 0 19755
699 0 19755
712 0 19756
726 0 19756
740 0 19757
753 0 19758
767 0 19759
781 0 19759
795 0 19760
808 0 19760
822 0 19760
836 0 19760
849 0 19759
863 0 19759
877 0 19758
890 0 19758
904 0 19758
918 0 19758
931 0 19759
945 0 19760
959 0 19761
972 0 19761
986 0 19762
1000 0 19762
1013 0 19763
1027 0 19763
1041 0 19763
1054 0 19763
1068 0 19763
1082 0 19763
1095 0 19763
1109 0 19763
1123 0 19763
1137 0 19763
1150 0 19764
1164 0 19764
1178 0 19764
1192 0 19764
1205 0 19764
1219 0 19764
1233 0 19764
1246 0 19765
1260 0 19765
1273 0 19766
1287 0 19766
1301 0 19767
1314 0 19768
1328 0 19768
1341 0 19769
1355 0 19770
1369 0 19770
1383 0 19771
1396 0 19771
1410 0 19771
1424 0 19771
1438 0 19771
1451 0 19771
1465 0 19771
1479 0 19770
1492 0 19770
1506 0 19770
1520 0 19771
1534 0 19771
1547 0 19771
1561 0 19771
1574 0 19771
1588 0 19771
1602 0 19770
1616 0 19770
1629 0 19769
1643 0 19769
1656 0 19769
1670 0 19770
1684 0 19771
1697 0 19772
1711 0 19773
1725 0 19773
1738 0 19774
1752 0 19775
1766 0 19776
1779 0 19776
1793 0 19777
1807 0 19778
1821 0 19778
1834 0 19779
1848 0 19780
1862 0 19781
1875 0 19782
1889 0 19783
1903 0 19783
1916 0 19783
1930 0 19783
1944 0 19783
1957 0 19782
1971 0 19782
1985 0 19781
1998 0 19781
2012 0 19780
2026 0 19780
2040 0 19779
2053 0 19779
2067 0 19779
2081 0 19780
2094 0 19780
2108 0 19781
2122 0 19781
2135 0 19782
2149 0 19783
2163 0 19784
2176 0 19784
2190 0 19784
2203 0 19785
2217 0 19785
2231 0 19786
2244 0 19788
2258 0 19789
2272 0 19790
2285 0 19791
2299 0 19792
2313 0 19793
2327 0 19793
2340 0 19794
2354 0 19794
2367 0 19794
2381 0 19795
2395 0 19795
2408 0 19796
2422 0 19796
2436 0 19795
2450 0 19795
2464 0 19795
2477 0 19794
2491 0 19793
2504 0 19793
2518 0 19793
2532 0 19793
2545 0 19793
2559 0 19793
2573 0 19793
2586 0 19793
2600 0 19794
2614 0 19794
2627 0 19795
2641 0 19796
2655 0 19796
2668 0 19797
2682 0 19796
2696 0 19796
2710 0 19796
2724 0 19796
2737 0 19795
2751 0 19795
2764 0 19795
2778 0 19795
2792 0 19796
2805 0 19797
2819 0 19798
2833 0 19799
2847 0 19799
2860 0 19799
2874 0 19799
2888 0 19797
2901 0 19796
2915 0 19795
2928 0 19794
2942 0 19794
2956 0 19795
2969 0 19795
2983 0 19796
2997 0 19797
3010 0 19798
3024 0 19800
3037 0 19806
3050 0 19813
3061 0 19823
3071 0 19834
3092 0 19807
3105 0 19828
3118 0 19837
3175 0 18957
3189 0 18936
3200 0 18924
3212 0 18908
3192 0 19740
3239 0 18885
3254 0 18873
3271 0 18866
3284 0 18859
3301 0 18853
3313 0 18846
3328 0 18838
3341 0 18833
3356 0 18826
3370 0 18816
3385 0 18809
3398 0 18802
3410 0 18794
3427 0 18788
3440 0 18783
3454 0 18779
3467 0 18774
3483 0 18771
3497 0 18768
3510 0 18766
3524 0 18766
3538 0 18766
3552 0 18767
3566 0 18768
3580 0 18769
3594 0 18770
3607 0 18770
3621 0 18769
3635 0 18768
3648 0 18768
3662 0 18768
3676 0 18769
3690 0 18770
3704 0 18770
3718 0 18771
3732 0 18771
3746 0 18770
3760 0 18770
3774 0 18769
3787 0 18768
3801 0 18768
3815 0 18768
3829 0 18769
3843 0 18770
3856 0 18771
3870 0 18772
3884 0 18773
3898 0 18773
3912 0 18774
3926 0 18774
3940 0 18775
3953 0 18776
3967 0 18777
3981 0 18778
3995 0 18779
4009 0 18780
4023 0 18780
4036 0 18780
4050 0 18780
4064 0 18781
4077 0 18781
4091 0 18782
4106 0 18783
4120 0 18784
4133 0 18784
4147 0 18784
4162 0 18783
4176 0 18781
4190 0 18779
4203 0 18778
4217 0 18777
4231 0 18777
4244 0 18778
4257 0 18781
4271 0 18783
4285 0 18786
4300 0 18788
4313 0 18789
4327 0 18790
4341 0 18791
4355 0 18791
4369 0 18792
4383 0 18792
4397 0 18793
4410 0 18794
4424 0 18794
4438 0 18794
4451 0 18794
4465 0 18793
4479 0 18792
4493 0 18792
4507 0 18791
4521 0 18791
4535 0 18790
4550 0 18789
4564 0 18788
4577 0 18787
4591 0 18786
4605 0 18786
4619 0 18785
4633 0 18785
4646 0 18785
4660 0 18785
4674 0 18786
4687 0 18787
4701 0 18789
4715 0 18791
4729 0 18792
4743 0 18793
4757 0 18793
4770 0 18794
4784 0 18794
4799 0 18794
4812 0 18794
4826 0 18795
4840 0 18796
4854 0 18797
4867 0 18798
4881 0 18799
4895 0 18800
4909 0 18801
4923 0 18801
4936 0 18801
4950 0 18801
4964 0 18801
4978 0 18800
4992 0 18800
5006 0 18800
5020 0 18800
5034 0 18801
5048 0 18801
5062 0 18801
5075 0 18802
5089 0 18802
5103 0 18803
5117 0 18803
5131 0 18804
5144 0 18804
5158 0 18805
5172 0 18805
5186 0 18805
5199 0 18804
5213 0 18804
5227 0 18803
5241 0 18803
5255 0 18803
5269 0 18803
5283 0 18804
5297 0 18805
5311 0 18807
5325 0 18808
5338 0 18809
5352 0 18810
5366 0 18811
5380 0 18812
5393 0 18812
5407 0 18812
5421 0 18812
5435 0 18812
5449 0 18812
5463 0 18812
5477 0 18813
5490 0 18813
5504 0 18812
5518 0 18812
5532 0 18811
5546 0 18811
5560 0 18810
5574 0 18810
5588 0 18809
5602 0 18810
5615 0 18810
5629 0 18811
5643 0 18812
5657 0 18814
5671 0 18815
5684 0 18817
5698 0 18817
5712 0 18818
5726 0 18818
5740 0 18816
5753 0 18815
5767 0 18814
5781 0 18813
5795 0 18813
5809 0 18813
5823 0 18814
5837 0 18814
5851 0 18815
5865 0 18817
5879 0 18818
5892 0 18820
5906 0 18821
5919 0 18822
5933 0 18822
5947 0 18823
5961 0 18823
5975 0 18823
5989 0 18823
6003 0 18822
6016 0 18822
6030 0 18822
6044 0 18823
6058 0 18823
6072 0 18824
6086 0 18825
6099 0 18826
6113 0 18826
6127 0 18827
6141 0 18827
6155 0 18827
6169 0 18826
6183 0 18826
6196 0 18826
6210 0 18825
6224 0 18825
6238 0 18824
6252 0 18824
6266 0 18824
6280 0 18823
6294 0 18823
6308 0 18824
6322 0 18825
6335 0 18826
6349 0 18827
6363 0 18828
6377 0 18829
6390 0 18829
6404 0 18829
6418 0 18830
6432 0 18830
6446 0 18830
6460 0 18831
6473 0 18832
6487 0 18833
6501 0 18834
6515 0 18835
6529 0 18835
6542 0 18835
6556 0 18835
6570 0 18834
6584 0 18834
6598 0 18833
6612 0 18833
6626 0 18833
6640 0 18833
6654 0 18833
6667 0 18834
6681 0 18835
6695 0 18836
6709 0 18837
6722 0 18838
6736 0 18840
6750 0 18840
6764 0 18841
6778 0 18841
6792 0 18840
6805 0 18840
6819 0 18840
6833 0 18840
6847 0 18841
6861 0 18842
6874 0 18844
6888 0 18845
6902 0 18846
6916 0 18847
6929 0 18847
6943 0 18847
6957 0 18848
6971 0 18848
6985 0 18848
6999 0 18848
7013 0 18848
7027 0 18848
7041 0 18847
7054 0 18847
7068 0 18846
7082 0 18845
7096 0 18845
7110 0 18844
7124 0 18845
7138 0 18845
7151 0 18846
7165 0 18847
7179 0 18848
7193 0 18849
7207 0 18850
7220 0 18851
7234 0 18851
7248 0 18852
7262 0 18852
7276 0 18852
7290 0 18852
7303 0 18851
7317 0 18851
7331 0 18851
7345 0 18851
7359 0 18851
7373 0 18852
7387 0 18852
7400 0 18852
7414 0 18852
7428 0 18852
7442 0 18853
7456 0 18853
7470 0 18854
7484 0 18854
7497 0 18854
7511 0 18854
7525 0 18854
7539 0 18854
7553 0 18854
7567 0 18854
7580 0 18854
7594 0 18854
7608 0 18854
7622 0 18854
7636 0 18854
7650 0 18854
7664 0 18855
7677 0 18855
7691 0 18855
7705 0 18856
7719 0 18857
7733 0 18858
7746 0 18859
7760 0 18860
7774 0 18861
7788 0 18862
7802 0 18862
7816 0 18862
7829 0 18861
7843 0 18860
7857 0 18859
7871 0 18858
7885 0 18857
7899 0 18857
7913 0 18858
7926 0 18859
7940 0 18861
7954 0 18862
7968 0 18863
7982 0 18863
7995 0 18864
8009 0 18864
8023 0 18864
8037 0 18863
8051 0 18863
8065 0 18863
8079 0 18862
8093 0 18863
8106 0 18863
8120 0 18864
8134 0 18865
8148 0 18866
8161 0 18867
8175 0 18868
8189 0 18869
8203 0 18869
8217 0 18870
8231 0 18870
8244 0 18870
8258 0 18870
8272 0 18871
8286 0 18871
8299 0 18872
8313 0 18873
8327 0 18873
8341 0 18873
8355 0 18874
8368 0 18874
8382 0 18875
8396 0 18875
8410 0 18875
8424 0 18876
8438 0 18876
8452 0 18876
8466 0 18875
8480 0 18875
8493 0 18875
8507 0 18875
8521 0 18876
8534 0 18876
8548 0 18877
8562 0 18878
8575 0 18880
8589 0 18881
8604 0 18882
8618 0 18883
8631 0 18884
8645 0 18885
8658 0 18885
8672 0 18884
8686 0 18883
8700 0 18882
8715 0 18881
8728 0 18881
8742 0 18882
8756 0 18882
8770 0 18883
8784 0 18884
8798 0 18884
8812 0 18884
8826 0 18883
8839 0 18882
8853 0 18882
8867 0 18881
8881 0 18882
8894 0 18882
8908 0 18883
8922 0 18884
8936 0 18884
8950 0 18885
8963 0 18886
8977 0 18887
8991 0 18888
9004 0 18889
9018 0 18890
9031 0 18891
9046 0 18892
9060 0 18893
9074 0 18894
9087 0 18894
9101 0 18894
9115 0 18894
9129 0 18894
9143 0 18893
9156 0 18892
9170 0 18891
9185 0 18891
9199 0 18890
9213 0 18890
9227 0 18889
9240 0 18889
9254 0 18889
9268 0 18890
9282 0 18891
9295 0 18892
9309 0 18893
9323 0 18894
9337 0 18894
9351 0 18894
9365 0 18894
9378 0 18895
9392 0 18895
9405 0 18896
9419 0 18898
9432 0 18899
9447 0 18900
9461 0 18901
9474 0 18902
9488 0 18902
9502 0 18902
9516 0 18901
9530 0 18901
9544 0 18901
9558 0 18901
9572 0 18901
9585 0 18901
9599 0 18901
9614 0 18902
9628 0 18903
9641 0 18904
9655 0 18905
9668 0 18906
9682 0 18906
9695 0 18906
9709 0 18906
9723 0 18905
9737 0 18905
9751 0 18905
9765 0 18905
9779 0 18906
9793 0 18907
9807 0 18909
9820 0 18910
9834 0 18911
9848 0 18911
9861 0 18912
9875 0 18912
9889 0 18912
9903 0 18912
9917 0 18911
9930 0 18911
9945 0 18911
9959 0 18911
9972 0 18911
9986 0 18911
10000 0 18910
10014 0 18910
10028 0 18909
10042 0 18909
10056 0 18909
10069 0 18910
10083 0 18910
10097 0 18911
10110 0 18912
10124 0 18914
10139 0 18915
10152 0 18916
10166 0 18917
10180 0 18919
10193 0 18920
10207 0 18921
10221 0 18922
10234 0 18922
10248 0 18923
10262 0 18923
10276 0 18924
10290 0 18924
10304 0 18925
10317 0 18925
10331 0 18925
10345 0 18925
10358 0 18925
10372 0 18925
10386 0 18924
10400 0 18924
10414 0 18924
10428 0 18924
10442 0 18925
10456 0 18925
10469 0 18924
10483 0 18924
10497 0 18923
10512 0 18921
10526 0 18920
10540 0 18919
10554 0 18918
10568 0 18918
10581 0 18917
10595 0 18918
10608 0 18919
10622 0 18920
10636 0 18922
10650 0 18923
10664 0 18924
10678 0 18925
10691 0 18926
10705 0 18927
10719 0 18928
10733 0 18928
10746 0 18929
10760 0 18930
10774 0 18931
10787 0 18931
10801 0 18931
10815 0 18931
10829 0 18930
10843 0 18930
10857 0 18930
10871 0 18930
10885 0 18930
10899 0 18931
10912 0 18932
10926 0 18933
10940 0 18934
10953 0 18935
10967 0 18936
10981 0 18937
10995 0 18937
11008 0 18936
11022 0 18936
11036 0 18935
11050 0 18935
11064 0 18934
11078 0 18934
11092 0 18934
11106 0 18933
11120 0 18933
11134 0 18933
11148 0 18933
11162 0 18933
11176 0 18933
11189 0 18933
11203 0 18933
11217 0 18934
11231 0 18934
11244 0 18934
11258 0 18935
11272 0 18935
11286 0 18936
11299 0 18937
11313 0 18938
11326 0 18939
11341 0 18940
11355 0 18941
11368 0 18942
11382 0 18943
11396 0 18944
11409 0 18945
11423 0 18945
11437 0 18946
11451 0 18945
11464 0 18944
11478 0 18943
11492 0 18942
11507 0 18941
11521 0 18941
11534 0 18941
11548 0 18941
11562 0 18942
11576 0 18942
11590 0 18943
11604 0 18943
11618 0 18944
11631 0 18944
11645 0 18944
11659 0 18945
11673 0 18946
11687 0 18947
11700 0 18948
11714 0 18949
11727 0 18950
11741 0 18951
11755 0 18952
11769 0 18952
11782 0 18953
11796 0 18954
11810 0 18954
11824 0 18955
11837 0 18955
11851 0 18955
11865 0 18955
11879 0 18955
11893 0 18955
11906 0 18954
11920 0 18953
11934 0 18953
11949 0 18952
11963 0 18951
11977 0 18951
11991 0 18950
12004 0 18950
12018 0 18951
12031 0 18953
12045 0 18955
12060 0 18956
12073 0 18958
12086 0 18959
12100 0 18960
12114 0 18961
12127 0 18961
12141 0 18961
12155 0 18961
12169 0 18962
12183 0 18962
12197 0 18963
12210 0 18964
12224 0 18964
12238 0 18965
12252 0 18965
12266 0 18965
12279 0 18965
12293 0 18964
12307 0 18964
12321 0 18963
12335 0 18962
12349 0 18962
12363 0 18961
12377 0 18961
12391 0 18961
12405 0 18961
12419 0 18962
12432 0 18963
12446 0 18965
12460 0 18966
12473 0 18967
12487 0 18968
12501 0 18968
12515 0 18969
12528 0 18969
12542 0 18969
12556 0 18969
12570 0 18969
12584 0 18969
12597 0 18969
12611 0 18969
12625 0 18968
12639 0 18967
12653 0 18967
12667 0 18966
12681 0 18966
12695 0 18967
12709 0 18968
12723 0 18970
12736 0 18972
12749 0 18974
12763 0 18976
12776 0 18978
12790 0 18979
12804 0 18981
12817 0 18981
12831 0 18982
12845 0 18982
12859 0 18982
12873 0 18981
12887 0 18981
12901 0 18980
12915 0 18980
12929 0 18979
12942 0 18979
12956 0 18979
12970 0 18980
12984 0 18980
12998 0 18980
13011 0 18980
13025 0 18981
13039 0 18981
13053 0 18981
13067 0 18981
13081 0 18981
13095 0 18981
13108 0 18981
13122 0 18982
13136 0 18982
13150 0 18982
13164 0 18982
13177 0 18982
13191 0 18982
13205 0 18982
13219 0 18983
13233 0 18983
13247 0 18984
13260 0 18985
13274 0 18986
13288 0 18987
13301 0 18987
13315 0 18987
13329 0 18986
13343 0 18986
13357 0 18985
13372 0 18984
13385 0 18984
13399 0 18984
13413 0 18985
13426 0 18986
13440 0 18986
13454 0 18987
13468 0 18988
13481 0 18990
13495 0 18990
13509 0 18991
13522 0 18993
13536 0 18993
13550 0 18994
13564 0 18994
13577 0 18994
13591 0 18994
13605 0 18994
13619 0 18994
13633 0 18994
13647 0 18994
13661 0 18994
13674 0 18994
13688 0 18994
13702 0 18994
13716 0 18995
13730 0 18996
13743 0 18997
13757 0 18997
13771 0 18998
13784 0 18999
13798 0 18999
13812 0 19000
13826 0 19000
13840 0 19001
13853 0 19001
13867 0 19002
13881 0 19002
13895 0 19003
13908 0 19003
13922 0 19003
13936 0 19004
13950 0 19004
13964 0 19004
13977 0 19005
13991 0 19005
14005 0 19005
14019 0 19005
14033 0 19004
14051 0 18998
14065 0 18998
14078 0 18999
14092 0 19000
-32768 -32768 -32768
-32768 -32768 -32768
-32768 -32768 -32768
-32768 -32768 -32768
-32768 -32768 -32768
-32768 -32768 -32768
-32768 -32768 -32768
-32768 -32768 -32768
-32768 -32768 -32768
-32768 -32768 -32768
-32768 -32768 -32768
-32768 -32768 -32768
-13950 0 19440
-13936 0 19441
-13922 0 19441
-13908 0 19442
-13892 0 19442
-13878 0 19442
-13864 0 19442
-13850 0 19442
-13837 0 19442
-13823 0 19441
-13809 0 19442
-13796 0 19442
-13782 0 19442
-13768 0 19443
-13754 0 19444
-13740 0 19445
-13727 0 19446
-13713 0 19447
-13699 0 19448
-13685 0 19449
-13671 0 19449
-13657 0 19449
-13644 0 19449
-13630 0 19449
-13616 0 19448
-13603 0 19448
-13589 0 19448
-13575 0 19448
-13562 0 19448
-13548 0 19448
-13534 0 19448
-13521 0 19448
-13507 0 19449
-13493 0 19449
-13479 0 19448
-13466 0 19448
-13452 0 19448
-13438 0 19448
-13425 0 19448
-13411 0 19448
-13397 0 19448
-13384 0 19448
-13370 0 19448
-13356 0 19448
-13342 0 19449
-13328 0 19449
-13315 0 19450
-13301 0 19451
-13287 0 19452
-13273 0 19453
-13259 0 19454
-13245 0 19455
-13231 0 19456
-13218 0 19457
-13204 0 19457
-13190 0 19458
-13176 0 19458
-13163 0 19458
-13149 0 19457
-13135 0 19457
-13122 0 19457
-13108 0 19458
-13094 0 19459
-13080 0 19459
-13066 0 19460
-13053 0 19461
-13039 0 19461
-13025 0 19461
-13012 0 19461
-12998 0 19461
-12984 0 19461
-12971 0 19460
-12957 0 19460
-12943 0 19459
-12930 0 19459
-12916 0 19458
-12903 0 19458
-12889 0 19457
-12875 0 19457
-12862 0 19457
-12848 0 19457
-12834 0 19458
-12820 0 19459
-12806 0 19460
-12792 0 19461
-12778 0 19462
-12765 0 19462
-12751 0 19463
-12737 0 19463
-12724 0 19463
-12710 0 19464
-12696 0 19464
-12682 0 19464
-12668 0 19465
-12655 0 19465
-12641 0 19466
-12627 0 19467
-12613 0 19467
-12599 0 19467
-12586 0 19468
-12572 0 19468
-12558 0 19468
-12545 0 19469
-12531 0 19469
-12517 0 19470
-12503 0 19471
-12489 0 19471
-12476 0 19472
-12462 0 19472
-12448 0 19472
-12434 0 19472
-12421 0 19471
-12407 0 19471
-12394 0 19470
-12380 0 19470
-12366 0 19470
-12353 0 19470
-12339 0 19471
-12325 0 19472
-12311 0 19473
-12297 0 19473
-12283 0 19474
-12270 0 19475
-12256 0 19476
-12242 0 19476
-12228 0 19477
-12214 0 19477
-12201 0 19477
-12187 0 19478
-12173 0 19478
-12160 0 19478
-12146 0 19479
-12132 0 19479
-12118 0 19480
-12105 0 19480
-12091 0 19481
-12077 0 19481
-12063 0 19482
-12049 0 19482
-12036 0 19483
-12022 0 19483
-12008 0 19482
-11994 0 19482
-11981 0 19482
-11967 0 19481
-11954 0 19481
-11940 0 19481
-11926 0 19481
-11912 0 19482
-11898 0 19483
-11884 0 19484
-11870 0 19485
-11857 0 19486
-11843 0 19487
-11829 0 19488
-11815 0 19488
-11802 0 19488
-11789 0 19487
-11775 0 19487
-11762 0 19486
-11748 0 19485
-11734 0 19485
-11720 0 19485
-11707 0 19486
-11693 0 19486
-11679 0 19487
-11665 0 19488
-11651 0 19488
-11637 0 19489
-11623 0 19489
-11610 0 19490
-11596 0 19490
-11583 0 19490
-11569 0 19490
-11555 0 19490
-11542 0 19489
-11528 0 19490
-11514 0 19490
-11500 0 19489
-11487 0 19490
-11473 0 19490
-11459 0 19490
-11445 0 19490
-11432 0 19490
-11418 0 19491
-11404 0 19492
-11390 0 19492
-11376 0 19493
-11363 0 19494
-11349 0 19495
-11335 0 19496
-11321 0 19496
-11308 0 19495
-11294 0 19495
-11281 0 19494
-11267 0 19494
-11253 0 19493
-11240 0 19493
-11226 0 19493
-11212 0 19494
-11198 0 19495
-11184 0 19495
-11171 0 19496
-11157 0 19496
-11143 0 19497
-11129 0 19497
-11116 0 19497
-11102 0 19498
-11088 0 19498
-11075 0 19498
-11061 0 19498
-11047 0 19498
-11033 0 19498
-11020 0 19499
-11006 0 19499
-10992 0 19499
-10979 0 19499
-10965 0 19500
-10951 0 19501
-10937 0 19502
-10923 0 19502
-10909 0 19503
-10896 0 19504
-10882 0 19505
-10868 0 19505
-10854 0 19506
-10841 0 19506
-10827 0 19506
-10813 0 19505
-10800 0 19505
-10786 0 19505
-10772 0 19506
-10759 0 19506
-10745 0 19507
-10731 0 19507
-10717 0 19508
-10703 0 19509
-10690 0 19509
-10676 0 19510
-10662 0 19510
-10648 0 19511
-10634 0 19511
-10621 0 19511
-10607 0 19512
-10593 0 19512
-10580 0 19512
-10566 0 19512
-10552 0 19512
-10539 0 19512
-10525 0 19512
-10511 0 19512
-10498 0 19512
-10484 0 19512
-10470 0 19512
-10456 0 19512
-10443 0 19512
-10429 0 19512
-10415 0 19511
-10402 0 19510
-10388 0 19510
-10374 0 19509
-10361 0 19509
-10347 0 19510
-10334 0 19511
-10320 0 19512
-10306 0 19514
-10292 0 19516
-10278 0 19517
-10264 0 19519
-10250 0 19519
-10236 0 19520
-10222 0 19520
-10209 0 19520
-10195 0 19519
-10181 0 19519
-10168 0 19519
-10154 0 19519
-10141 0 19519
-10127 0 19520
-10113 0 19520
-10099 0 19521
-10086 0 19521
-10072 0 19522
-10058 0 19522
-10044 0 19522
-10031 0 19522
-10017 0 19523
-10003 0 19523
-9989 0 19522
-9976 0 19522
-9962 0 19521
-9948 0 19521
-9935 0 19521
-9921 0 19521
-9908 0 19521
-9894 0 19521
-9880 0 19522
-9866 0 19523
-9852 0 19524
-9838 0 19525
-9824 0 19526
-9811 0 19527
-9797 0 19528
-9783 0 19529
-9769 0 19530
-9756 0 19530
-9742 0 19531
-9728 0 19531
-9714 0 19532
-9701 0 19532
-9687 0 19532
-9673 0 19532
-9660 0 19533
-9646 0 19532
-9632 0 19532
-9619 0 19532
-9605 0 19532
-9591 0 19532
-9578 0 19532
-9564 0 19532
-9550 0 19532
-9536 0 19532
-9522 0 19533
-9509 0 19534
-9495 0 19535
-9481 0 19535
-9467 0 19536
-9454 0 19536
-9440 0 19536
-9426 0 19536
-9413 0 19536
-9399 0 19536
-9385 0 19536
-9372 0 19536
-9358 0 19536
-9344 0 19537
-9330 0 19537
-9317 0 19538
-9303 0 19539
-9289 0 19539
-9275 0 19540
-9262 0 19541
-9248 0 19541
-9234 0 19542
-9220 0 19543
-9206 0 19543
-9193 0 19543
-9179 0 19543
-9165 0 19543
-9152 0 19542
-9138 0 19541
-9125 0 19541
-9111 0 19540
-9097 0 19540
-9084 0 19540
-9070 0 19540
-9056 0 19541
-9042 0 19541
-9029 0 19542
-9015 0 19542
-9001 0 19542
-8988 0 19542
-8974 0 19542
-8960 0 19542
-8946 0 19543
-8933 0 19543
-8919 0 19543
-8905 0 19543
-8892 0 19544
-8878 0 19544
-8864 0 19544
-8850 0 19545
-8837 0 19545
-8823 0 19545
-8809 0 19545
-8795 0 19546
-8782 0 19546
-8768 0 19546
-8754 0 19547
-8740 0 19547
-8727 0 19548
-8713 0 19550
-8699 0 19551
-8686 0 19551
-8672 0 19552
-8658 0 19552
-8644 0 19552
-8630 0 19552
-8617 0 19552
-8603 0 19551
-8590 0 19550
-8576 0 19550
-8562 0 19550
-8549 0 19550
-8535 0 19550
-8521 0 19550
-8507 0 19550
-8494 0 19549
-8480 0 19549
-8466 0 19549
-8453 0 19549
-8439 0 19550
-8426 0 19550
-8412 0 19550
-8398 0 19550
-8384 0 19551
-8371 0 19551
-8357 0 19551
-8343 0 19551
-8329 0 19552
-8316 0 19552
-8302 0 19552
-8288 0 19552
-8274 0 19553
-8261 0 19554
-8247 0 19554
-8233 0 19555
-8219 0 19556
-8206 0 19557
-8192 0 19557
-8178 0 19558
-8164 0 19559
-8151 0 19560
-8137 0 19560
-8123 0 19561
-8110 0 19562
-8096 0 19563
-8082 0 19564
-8068 0 19564
-8054 0 19564
-8040 0 19564
-8027 0 19563
-8013 0 19563
-7999 0 19562
-7986 0 19562
-7972 0 19561
-7959 0 19562
-7945 0 19562
-7931 0 19562
-7917 0 19562
-7904 0 19562
-7890 0 19562
-7876 0 19562
-7863 0 19562
-7849 0 19562
-7836 0 19563
-7822 0 19564
-7808 0 19565
-7794 0 19566
-7780 0 19567
-7766 0 19569
-7752 0 19570
-7739 0 19570
-7725 0 19571
-7711 0 19570
-7698 0 19570
-7684 0 19570
-7670 0 19570
-7657 0 19570
-7643 0 19570
-7629 0 19570
-7615 0 19571
-7602 0 19571
-7588 0 19572
-7574 0 19572
-7561 0 19572
-7547 0 19573
-7533 0 19573
-7520 0 19572
-7506 0 19572
-7492 0 19572
-7479 0 19572
-7465 0 19571
-7451 0 19571
-7437 0 19571
-7424 0 19571
-7410 0 19571
-7396 0 19572
-7383 0 19572
-7369 0 19572
-7355 0 19572
-7341 0 19573
-7328 0 19573
-7314 0 19574
-7300 0 19574
-7286 0 19575
-7272 0 19576
-7259 0 19577
-7245 0 19578
-7231 0 19579
-7218 0 19580
-7204 0 19580
-7190 0 19580
-7177 0 19580
-7163 0 19580
-7149 0 19580
-7136 0 19580
-7122 0 19580
-7108 0 19580
-7095 0 19579
-7081 0 19579
-7067 0 19579
-7053 0 19580
-7040 0 19580
-7026 0 19580
-7012 0 19580
-6998 0 19579
-6985 0 19580
-6971 0 19580
-6957 0 19581
-6944 0 19582
-6930 0 19582
-6916 0 19583
-6902 0 19584
-6889 0 19584
-6875 0 19585
-6861 0 19585
-6848 0 19585
-6834 0 19586
-6820 0 19586
-6806 0 19586
-6793 0 19587
-6779 0 19588
-6765 0 19588
-6751 0 19589
-6738 0 19589
-6724 0 19589
-6710 0 19589
-6696 0 19589
-6683 0 19589
-6669 0 19589
-6656 0 19588
-6642 0 19589
-6628 0 19589
-6614 0 19590
-6601 0 19590
-6587 0 19591
-6573 0 19592
-6559 0 19593
-6546 0 19593
-6532 0 19594
-6518 0 19593
-6505 0 19592
-6491 0 19592
-6478 0 19591
-6464 0 19591
-6450 0 19590
-6436 0 19590
-6423 0 19591
-6409 0 19591
-6395 0 19591
-6382 0 19592
-6368 0 19592
-6354 0 19593
-6340 0 19593
-6327 0 19594
-6313 0 19595
-6299 0 19596
-6285 0 19597
-6272 0 19599
-6258 0 19600
-6244 0 19601
-6230 0 19601
-6216 0 19603
-6203 0 19603
-6189 0 19604
-6175 0 19605
-6161 0 19605
-6148 0 19605
-6134 0 19606
-6120 0 19605
-6106 0 19605
-6093 0 19605
-6079 0 19604
-6066 0 19604
-6052 0 19604
-6038 0 19604
-6025 0 19605
-6011 0 19605
-5997 0 19605
-5984 0 19605
-5970 0 19605
-5956 0 19606
-5943 0 19606
-5929 0 19606
-5915 0 19607
-5901 0 19607
-5888 0 19608
-5874 0 19608
-5860 0 19609
-5846 0 19609
-5832 0 19609
-5819 0 19609
-5805 0 19609
-5791 0 19609
-5778 0 19610
-5764 0 19610
-5750 0 19610
-5737 0 19610
-5723 0 19610
-5709 0 19610
-5696 0 19610
-5682 0 19611
-5668 0 19611
-5655 0 19612
-5641 0 19612
-5627 0 19613
-5613 0 19614
-5600 0 19614
-5586 0 19615
-5572 0 19616
-5558 0 19616
-5545 0 19617
-5531 0 19618
-5517 0 19618
-5503 0 19619
-5490 0 19619
-5476 0 19619
-5462 0 19619
-5449 0 19619
-5435 0 19618
