ply
format ascii 1.0
comment PCL generated
element vertex 3423
property float x
property float y
property float z
element camera 0
property float view_px
property float view_py
property float view_pz
property float x_axisx
property float x_axisy
property float x_axisz
property float y_axisx
property float y_axisy
property float y_axisz
property float z_axisx
property float z_axisy
property float z_axisz
property float focal
property float scalex
property float scaley
property float centerx
property float centery
property int viewportx
property int viewporty
property float k1
property float k2
end_header
-32768 -1.31072e+08 -32768
-32768 -1.31072e+08 -32768
-32768 -1.31072e+08 -32768
-32768 -1.31072e+08 -32768
-32768 -1.31072e+08 -32768
-32768 -1.31072e+08 -32768
-32768 -1.31072e+08 -32768
-32768 -1.31072e+08 -32768
-32768 -1.31072e+08 -32768
-32768 -1.31072e+08 -32768
-32768 -1.31072e+08 -32768
-32768 -1.31072e+08 -32768
-32768 -1.31072e+08 -32768
-32768 -1.31072e+08 -32768
-32768 -1.31072e+08 -32768
-32768 -1.31072e+08 -32768
-32768 -1.31072e+08 -32768
-32768 -1.31072e+08 -32768
-32768 -1.31072e+08 -32768
-32768 -1.31072e+08 -32768
-32768 -1.31072e+08 -32768
-32768 -1.31072e+08 -32768
-32768 -1.31072e+08 -32768
-32768 -1.31072e+08 -32768
-32768 -1.31072e+08 -32768
-32768 -1.31072e+08 -32768
-32768 -1.31072e+08 -32768
-32768 -1.31072e+08 -32768
-32768 -1.31072e+08 -32768
-32768 -1.31072e+08 -32768
-32768 -1.31072e+08 -32768
-32768 -1.31072e+08 -32768
-32768 -1.31072e+08 -32768
-32768 -1.31072e+08 -32768
-32768 -1.31072e+08 -32768
-32768 -1.31072e+08 -32768
-32768 -1.31072e+08 -32768
-32768 -1.31072e+08 -32768
-32768 -1.31072e+08 -32768
-32768 -1.31072e+08 -32768
-32768 -1.31072e+08 -32768
-32768 -1.31072e+08 -32768
-32768 -1.31072e+08 -32768
-32768 -1.31072e+08 -32768
-32768 -1.31072e+08 -32768
-32768 -1.31072e+08 -32768
-32768 -1.31072e+08 -32768
-32768 -1.31072e+08 -32768
-32768 -1.31072e+08 -32768
-32768 -1.31072e+08 -32768
-32768 -1.31072e+08 -32768
-32768 -1.31072e+08 -32768
-32768 -1.31072e+08 -32768
-32768 -1.31072e+08 -32768
-32768 -1.31072e+08 -32768
-32768 -1.31072e+08 -32768
-7900 0 23772
-7892 0 23738
-7871 0 23760
-7864 0 23749
-7847 0 23749
-7837 0 23731
-7830 0 23715
-7821 0 23692
-7809 0 23673
-7719 0 24418
-7707 0 24405
-7696 0 24393
-7676 0 24422
-7664 0 24406
-7656 0 24400
-7644 0 24393
-7631 0 24391
-7618 0 24390
-7606 0 24392
-7594 0 24398
-7578 0 24406
-7567 0 24418
-7552 0 24429
-7538 0 24438
-7525 0 24450
-7511 0 24457
-7497 0 24469
-7481 0 24478
-7470 0 24487
-7454 0 24497
-7439 0 24508
-7428 0 24520
-7413 0 24532
-7397 0 24543
-7386 0 24553
-7370 0 24563
-7359 0 24572
-7343 0 24580
-7332 0 24590
-7316 0 24601
-7300 0 24611
-7289 0 24621
-7273 0 24633
-7263 0 24645
-7247 0 24657
-7232 0 24671
-7219 0 24683
-7204 0 24700
-7192 0 24715
-7177 0 24729
-7165 0 24739
-7151 0 24757
-7135 0 24752
-7122 0 24759
-7109 0 24755
-7096 0 24763
-7079 0 24827
-7065 0 24816
-7048 0 24866
-7030 0 24914
-7017 0 24921
-7004 0 24921
-6992 0 24920
-6976 0 24928
-6964 0 24918
-6953 0 24909
-6940 0 24903
-6930 0 24895
-6918 0 24890
-6906 0 24879
-6894 0 24874
-6881 0 24872
-6868 0 24873
-6855 0 24873
-6843 0 24873
-6830 0 24874
-6817 0 24874
-6804 0 24875
-6791 0 24875
-6778 0 24876
-6766 0 24877
-6753 0 24878
-6740 0 24878
-6727 0 24879
-6714 0 24879
-6702 0 24879
-6689 0 24880
-6676 0 24880
-6663 0 24880
-6650 0 24879
-6638 0 24879
-6625 0 24878
-6612 0 24878
-6600 0 24877
-6587 0 24877
-6574 0 24878
-6561 0 24878
-6549 0 24879
-6536 0 24879
-6523 0 24879
-6510 0 24879
-6497 0 24879
-6484 0 24878
-6472 0 24878
-6459 0 24878
-6446 0 24878
-6433 0 24879
-6421 0 24880
-6408 0 24882
-6395 0 24883
-6382 0 24885
-6369 0 24885
-6356 0 24886
-6343 0 24886
-6331 0 24885
-6318 0 24884
-6305 0 24883
-6293 0 24882
-6280 0 24882
-6267 0 24881
-6254 0 24881
-6242 0 24882
-6229 0 24882
-6216 0 24882
-6203 0 24883
-6190 0 24883
-6177 0 24883
-6164 0 24884
-6152 0 24885
-6139 0 24885
-6127 0 24886
-6114 0 24886
-6101 0 24886
-6088 0 24886
-6075 0 24886
-6062 0 24886
-6050 0 24886
-6037 0 24886
-6024 0 24886
-6011 0 24886
-5998 0 24885
-5986 0 24885
-5973 0 24885
-5960 0 24884
-5947 0 24884
-5934 0 24884
-5922 0 24884
-5909 0 24885
-5896 0 24886
-5883 0 24887
-5871 0 24888
-5858 0 24889
-5845 0 24890
-5832 0 24890
-5819 0 24890
-5807 0 24890
-5794 0 24889
-5781 0 24889
-5768 0 24889
-5756 0 24888
-5743 0 24888
-5730 0 24888
-5717 0 24888
-5704 0 24888
-5692 0 24888
-5679 0 24888
-5666 0 24889
-5653 0 24889
-5640 0 24890
-5628 0 24890
-5615 0 24891
-5602 0 24891
-5589 0 24892
-5576 0 24893
-5563 0 24893
-5551 0 24893
-5538 0 24894
-5525 0 24895
-5512 0 24896
-5499 0 24897
-5487 0 24898
-5474 0 24899
-5461 0 24899
-5448 0 24899
-5435 0 24899
-5423 0 24898
-5410 0 24898
-5397 0 24896
-5385 0 24896
-5372 0 24895
-5359 0 24894
-5346 0 24894
-5334 0 24893
-5321 0 24893
-5308 0 24892
-5295 0 24892
-5283 0 24892
-5270 0 24893
-5257 0 24893
-5244 0 24894
-5231 0 24895
-5219 0 24895
-5206 0 24895
-5193 0 24894
-5180 0 24894
-5168 0 24893
-5155 0 24892
-5142 0 24892
-5129 0 24892
-5117 0 24892
-5104 0 24892
-5091 0 24892
-5078 0 24893
-5065 0 24893
-5052 0 24894
-5039 0 24894
-5027 0 24895
-5014 0 24896
-5001 0 24897
-4988 0 24898
-4975 0 24898
-4963 0 24900
-4950 0 24900
-4937 0 24900
-4924 0 24901
-4912 0 24901
-4899 0 24900
-4886 0 24900
-4873 0 24899
-4861 0 24897
-4848 0 24897
-4835 0 24896
-4823 0 24895
-4810 0 24895
-4797 0 24895
-4787 0 24882
-4772 0 24895
-4759 0 24895
-4746 0 24896
-4733 0 24896
-4720 0 24896
-4708 0 24896
-4695 0 24896
-4682 0 24897
-4669 0 24897
-4656 0 24897
-4643 0 24899
-4631 0 24900
-4618 0 24901
-4605 0 24902
-4592 0 24902
-4579 0 24902
-4566 0 24902
-4554 0 24902
-4541 0 24902
-4528 0 24902
-4515 0 24901
-4503 0 24900
-4490 0 24901
-4477 0 24901
-4465 0 24901
-4452 0 24901
-4439 0 24901
-4426 0 24901
-4414 0 24902
-4401 0 24903
-4388 0 24903
-4375 0 24903
-4362 0 24903
-4349 0 24904
-4336 0 24903
-4323 0 24903
-4311 0 24903
-4298 0 24904
-4285 0 24904
-4273 0 24905
-4260 0 24906
-4247 0 24906
-4234 0 24906
-4222 0 24906
-4209 0 24906
-4196 0 24906
-4183 0 24906
-4170 0 24906
-4157 0 24906
-4144 0 24905
-4132 0 24906
-4119 0 24906
-4106 0 24907
-4093 0 24909
-4081 0 24912
-4068 0 24913
-4055 0 24915
-4042 0 24916
-4029 0 24916
-4017 0 24916
-4004 0 24916
-3991 0 24916
-3978 0 24915
-3965 0 24914
-3953 0 24913
-3940 0 24912
-3927 0 24910
-3915 0 24909
-3902 0 24908
-3889 0 24907
-3876 0 24906
-3864 0 24906
-3851 0 24905
-3838 0 24905
-3828 0 24889
-3813 0 24906
-3800 0 24906
-3787 0 24906
-3774 0 24907
-3761 0 24907
-3749 0 24908
-3736 0 24908
-3723 0 24909
-3710 0 24909
-3697 0 24910
-3685 0 24910
-3672 0 24910
-3659 0 24910
-3646 0 24910
-3633 0 24910
-3621 0 24910
-3605 0 24922
-3595 0 24910
-3582 0 24910
-3570 0 24911
-3557 0 24911
-3544 0 24911
-3531 0 24911
-3518 0 24911
-3506 0 24912
-3493 0 24912
-3480 0 24912
-3467 0 24912
-3454 0 24912
-3442 0 24913
-3429 0 24913
-3416 0 24914
-3403 0 24915
-3391 0 24915
-3378 0 24915
-3365 0 24915
-3352 0 24914
-3339 0 24913
-3326 0 24912
-3314 0 24910
-3301 0 24908
-3288 0 24907
-3276 0 24908
-3263 0 24909
-3250 0 24911
-3238 0 24913
-3224 0 24915
-3212 0 24915
-3199 0 24916
-3186 0 24916
-3173 0 24916
-3160 0 24916
-3148 0 24915
-3135 0 24915
-3122 0 24916
-3109 0 24915
-3096 0 24915
-3084 0 24916
-3071 0 24917
-3058 0 24918
-3045 0 24918
-3033 0 24919
-3020 0 24919
-3007 0 24919
-2994 0 24920
-2982 0 24920
-2969 0 24920
-2956 0 24921
-2943 0 24921
-2930 0 24921
-2917 0 24921
-2905 0 24920
-2892 0 24920
-2879 0 24920
-2866 0 24920
-2854 0 24920
-2841 0 24921
-2828 0 24921
-2815 0 24921
-2803 0 24921
-2790 0 24921
-2777 0 24922
-2764 0 24921
-2752 0 24920
-2739 0 24919
-2726 0 24919
-2713 0 24918
-2701 0 24918
-2688 0 24918
-2675 0 24918
-2662 0 24918
-2649 0 24918
-2636 0 24918
-2624 0 24917
-2611 0 24917
-2598 0 24916
-2585 0 24916
-2572 0 24916
-2560 0 24916
-2547 0 24914
-2534 0 24912
-2521 0 24920
-2509 0 24914
-2496 0 24915
-2484 0 24912
-2471 0 24913
-2458 0 24911
-2445 0 24910
-2432 0 24910
-2420 0 24910
-2407 0 24910
-2394 0 24911
-2381 0 24912
-2368 0 24914
-2355 0 24915
-2343 0 24917
-2330 0 24921
-2317 0 24925
-2304 0 24924
-2291 0 24927
-2278 0 24928
-2266 0 24928
-2253 0 24929
-2240 0 24925
-2227 0 24925
-2215 0 24926
-2202 0 24926
-2189 0 24925
-2176 0 24922
-2164 0 24922
-2151 0 24920
-2138 0 24919
-2125 0 24919
-2113 0 24920
-2100 0 24915
-2087 0 24923
-2074 0 24923
-2061 0 24932
-2048 0 24932
-2036 0 24932
-2023 0 24932
-2010 0 24932
-1997 0 24931
-1985 0 24929
-1972 0 24928
-1959 0 24927
-1946 0 24926
-1934 0 24926
-1921 0 24927
-1908 0 24927
-1895 0 24928
-1882 0 24928
-1869 0 24929
-1857 0 24929
-1844 0 24929
-1831 0 24929
-1819 0 24925
-1806 0 24922
-1793 0 24921
-1780 0 24921
-1768 0 24922
-1755 0 24922
-1742 0 24922
-1729 0 24923
-1716 0 24923
-1704 0 24922
-1691 0 24922
-1678 0 24922
-1665 0 24922
-1652 0 24922
-1640 0 24923
-1627 0 24923
-1614 0 24924
-1601 0 24925
-1588 0 24926
-1576 0 24927
-1563 0 24927
-1550 0 24927
-1537 0 24927
-1525 0 24926
-1512 0 24924
-1499 0 24922
-1486 0 24922
-1473 0 24923
-1461 0 24923
-1448 0 24923
-1435 0 24923
-1422 0 24923
-1410 0 24923
-1397 0 24923
-1384 0 24923
-1371 0 24923
-1358 0 24923
-1346 0 24924
-1333 0 24924
-1320 0 24924
-1307 0 24924
-1294 0 24924
-1282 0 24925
-1269 0 24928
-1256 0 24930
-1244 0 24931
-1231 0 24933
-1218 0 24934
-1205 0 24935
-1192 0 24935
-1179 0 24935
-1167 0 24935
-1154 0 24934
-1141 0 24934
-1128 0 24933
-1115 0 24933
-1103 0 24932
-1090 0 24932
-1077 0 24932
-1064 0 24932
-1052 0 24933
-1039 0 24933
-1026 0 24933
-1013 0 24934
-1000 0 24934
-988 0 24933
-975 0 24932
-962 0 24931
-949 0 24928
-937 0 24928
-924 0 24928
-911 0 24927
-898 0 24927
-886 0 24927
-873 0 24927
-860 0 24927
-847 0 24928
-834 0 24928
-822 0 24928
-809 0 24929
-796 0 24929
-784 0 24930
-771 0 24931
-758 0 24931
-745 0 24931
-732 0 24932
-719 0 24932
-707 0 24933
-694 0 24932
-681 0 24933
-668 0 24933
-656 0 24933
-643 0 24934
-630 0 24934
-617 0 24935
-604 0 24935
-592 0 24936
-579 0 24937
-566 0 24937
-553 0 24938
-541 0 24938
-528 0 24938
-515 0 24938
-502 0 24938
-489 0 24937
-477 0 24937
-464 0 24936
-451 0 24936
-438 0 24936
-425 0 24936
-413 0 24936
-400 0 24936
-387 0 24937
-374 0 24938
-361 0 24939
-349 0 24940
-336 0 24941
-323 0 24942
-310 0 24943
-298 0 24943
-285 0 24943
-272 0 24944
-259 0 24943
-247 0 24943
-234 0 24942
-221 0 24942
-208 0 24942
-195 0 24943
-183 0 24943
-170 0 24943
-157 0 24943
-144 0 24943
-132 0 24943
-119 0 24942
-106 0 24942
-93 0 24941
-80 0 24940
-68 0 24939
-55 0 24939
-42 0 24940
-29 0 24941
-16 0 24941
-4 0 24942
7 0 24943
20 0 24943
33 0 24943
45 0 24944
58 0 24944
71 0 24944
84 0 24943
97 0 24943
109 0 24943
122 0 24942
135 0 24941
148 0 24941
161 0 24941
174 0 24940
186 0 24940
199 0 24941
212 0 24942
224 0 24943
237 0 24945
250 0 24946
263 0 24947
275 0 24948
288 0 24948
301 0 24948
314 0 24948
327 0 24948
339 0 24949
352 0 24949
365 0 24949
378 0 24949
391 0 24949
403 0 24949
416 0 24949
429 0 24949
442 0 24950
454 0 24950
467 0 24950
480 0 24950
493 0 24949
505 0 24947
518 0 24946
531 0 24945
544 0 24944
557 0 24943
570 0 24942
582 0 24941
595 0 24941
608 0 24942
621 0 24942
634 0 24943
646 0 24944
659 0 24945
672 0 24945
685 0 24947
697 0 24948
710 0 24949
723 0 24951
735 0 24953
748 0 24953
761 0 24955
774 0 24955
787 0 24956
800 0 24956
812 0 24955
825 0 24954
838 0 24957
851 0 24940
864 0 24940
876 0 24946
889 0 24948
902 0 24948
914 0 24949
927 0 24951
940 0 24951
953 0 24952
966 0 24953
978 0 24953
991 0 24953
1004 0 24952
1017 0 24951
1030 0 24950
1042 0 24950
1055 0 24950
1068 0 24950
1080 0 24950
1093 0 24950
1106 0 24950
1119 0 24950
1132 0 24950
1145 0 24950
1158 0 24950
1170 0 24950
1183 0 24950
1196 0 24950
1208 0 24950
1221 0 24951
1234 0 24952
1247 0 24952
1259 0 24953
1272 0 24954
1285 0 24955
1298 0 24956
1311 0 24956
1323 0 24956
1336 0 24956
1349 0 24955
1362 0 24954
1375 0 24952
1388 0 24951
1400 0 24950
1413 0 24949
1426 0 24948
1439 0 24948
1451 0 24948
1464 0 24948
1477 0 24948
1490 0 24949
1502 0 24949
1515 0 24949
1528 0 24950
1541 0 24950
1554 0 24950
1566 0 24952
1579 0 24952
1592 0 24954
1605 0 24955
1618 0 24956
1630 0 24958
1643 0 24959
1656 0 24961
1668 0 24961
1681 0 24961
1694 0 24960
1707 0 24959
1719 0 24958
1732 0 24956
1745 0 24956
1758 0 24955
1771 0 24954
1784 0 24954
1797 0 24954
1809 0 24955
1822 0 24955
1835 0 24956
1848 0 24958
1860 0 24959
1873 0 24960
1886 0 24960
1898 0 24959
1911 0 24958
1924 0 24956
1937 0 24955
1950 0 24955
1962 0 24954
1975 0 24955
1988 0 24955
2001 0 24956
2014 0 24956
2027 0 24957
2040 0 24958
2052 0 24959
2065 0 24959
2078 0 24960
2090 0 24960
2103 0 24960
2116 0 24960
2129 0 24961
2141 0 24961
2154 0 24961
2167 0 24962
2180 0 24963
2193 0 24963
2205 0 24964
2218 0 24964
2231 0 24964
2243 0 24964
2256 0 24964
2269 0 24963
2282 0 24963
2295 0 24962
2308 0 24961
2320 0 24960
2333 0 24959
2346 0 24958
2359 0 24958
2372 0 24958
2385 0 24959
2397 0 24959
2410 0 24961
2423 0 24962
2435 0 24965
2448 0 24965
2461 0 24965
2474 0 24965
2486 0 24963
2499 0 24963
2512 0 24962
2525 0 24960
2538 0 24959
2551 0 24958
2563 0 24958
2576 0 24958
2589 0 24959
2602 0 24960
2614 0 24960
2627 0 24960
2640 0 24959
2653 0 24958
2666 0 24957
2679 0 24956
2692 0 24955
2704 0 24952
2717 0 24952
2730 0 24953
2743 0 24953
2755 0 24953
2768 0 24953
2781 0 24954
2794 0 24956
2806 0 24956
2819 0 24957
2832 0 24957
2845 0 24957
2858 0 24957
2870 0 24957
2883 0 24957
2896 0 24956
2909 0 24956
2922 0 24956
2934 0 24966
2946 0 24976
2957 0 24985
2966 0 24993
2985 0 24958
2998 0 24970
3010 0 24986
3021 0 24995
3073 0 24070
3091 0 24071
3098 0 24051
3107 0 24043
3123 0 24026
3136 0 24022
3153 0 24013
3167 0 24011
3180 0 24010
3158 0 24827
3206 0 24004
3219 0 24006
3233 0 24007
3246 0 24007
3259 0 23960
3275 0 23992
3286 0 23944
3299 0 23971
3314 0 23955
3326 0 23946
3338 0 23939
3350 0 23934
3364 0 23932
3377 0 23932
3390 0 23932
3403 0 23931
3416 0 23931
3429 0 23931
3442 0 23930
3455 0 23929
3468 0 23928
3482 0 23926
3494 0 23925
3507 0 23923
3520 0 23921
3533 0 23919
3546 0 23918
3559 0 23918
3572 0 23918
3585 0 23918
3599 0 23919
3612 0 23919
3625 0 23920
3637 0 23919
3650 0 23918
3664 0 23917
3677 0 23915
3690 0 23913
3702 0 23912
3715 0 23912
3728 0 23913
3741 0 23913
3754 0 23915
3767 0 23916
3780 0 23916
3793 0 23917
3806 0 23917
3819 0 23917
3832 0 23916
3845 0 23915
3858 0 23915
3871 0 23914
3884 0 23914
3897 0 23914
3910 0 23914
3923 0 23914
3936 0 23914
3949 0 23915
3962 0 23916
3975 0 23917
3987 0 23918
4000 0 23921
4013 0 23923
4026 0 23924
4039 0 23924
4052 0 23924
4065 0 23923
4078 0 23923
4091 0 23922
4104 0 23921
4117 0 23921
4130 0 23920
4143 0 23920
4156 0 23920
4169 0 23920
4182 0 23920
4195 0 23920
4208 0 23920
4221 0 23920
4234 0 23920
4247 0 23921
4260 0 23921
4272 0 23922
4285 0 23922
4298 0 23923
4311 0 23923
4324 0 23923
4337 0 23922
4350 0 23922
4363 0 23922
4376 0 23922
4389 0 23922
4402 0 23922
4415 0 23922
4428 0 23922
4441 0 23922
4454 0 23922
4467 0 23922
4480 0 23922
4493 0 23923
4506 0 23924
4519 0 23924
4532 0 23925
4545 0 23925
4558 0 23926
4571 0 23925
4584 0 23924
4596 0 23923
4609 0 23922
4622 0 23921
4635 0 23921
4649 0 23921
4662 0 23921
4675 0 23922
4688 0 23922
4701 0 23923
4713 0 23924
4726 0 23924
4739 0 23924
4752 0 23924
4765 0 23923
4778 0 23922
4792 0 23922
4805 0 23921
4817 0 23922
4830 0 23923
4843 0 23925
4856 0 23927
4868 0 23929
4881 0 23930
4894 0 23931
4907 0 23932
4920 0 23932
4933 0 23932
4947 0 23932
4960 0 23931
4972 0 23931
4985 0 23930
4998 0 23929
5011 0 23929
5024 0 23929
5037 0 23929
5050 0 23930
5063 0 23930
5076 0 23931
5089 0 23931
5102 0 23931
5115 0 23932
5128 0 23932
5141 0 23932
5154 0 23932
5167 0 23932
5180 0 23932
5193 0 23931
5205 0 23931
5218 0 23930
5232 0 23929
5245 0 23928
5258 0 23928
5271 0 23927
5284 0 23927
5297 0 23927
5310 0 23927
5323 0 23926
5336 0 23926
5349 0 23926
5362 0 23926
5375 0 23925
5388 0 23926
5401 0 23926
5414 0 23927
5427 0 23928
5440 0 23929
5453 0 23929
5465 0 23930
5478 0 23931
5491 0 23932
5504 0 23933
5517 0 23934
5529 0 23934
5543 0 23934
5556 0 23934
5569 0 23934
5582 0 23934
5595 0 23933
5608 0 23933
5621 0 23933
5634 0 23933
5647 0 23933
5660 0 23933
5673 0 23933
5685 0 23934
5698 0 23934
5711 0 23935
5724 0 23935
5737 0 23935
5750 0 23936
5763 0 23937
5776 0 23938
5789 0 23939
5801 0 23940
5814 0 23940
5827 0 23941
5840 0 23941
5854 0 23941
5867 0 23941
5880 0 23941
5893 0 23941
5906 0 23941
5919 0 23941
5932 0 23940
5945 0 23940
5958 0 23939
5971 0 23939
5984 0 23939
5997 0 23939
6010 0 23939
6023 0 23938
6036 0 23938
6049 0 23938
6062 0 23938
6074 0 23938
6087 0 23938
6100 0 23938
6113 0 23939
6126 0 23939
6139 0 23940
6152 0 23940
6165 0 23941
6178 0 23941
6191 0 23940
6204 0 23940
6217 0 23939
6230 0 23937
6243 0 23936
6256 0 23934
6269 0 23933
6283 0 23933
6295 0 23932
6308 0 23932
6321 0 23931
6334 0 23931
6347 0 23931
6360 0 23932
6373 0 23934
6386 0 23935
6398 0 23936
6411 0 23937
6424 0 23938
6438 0 23938
6451 0 23939
6464 0 23939
6476 0 23939
6489 0 23939
6502 0 23940
6515 0 23940
6528 0 23940
6541 0 23939
6554 0 23939
6567 0 23938
6580 0 23938
6593 0 23937
6606 0 23937
6619 0 23937
6632 0 23937
6645 0 23937
6658 0 23937
6671 0 23937
6684 0 23937
6697 0 23937
6710 0 23938
6723 0 23939
6735 0 23940
6748 0 23940
6761 0 23941
6774 0 23941
6787 0 23941
6800 0 23942
6813 0 23943
6826 0 23943
6839 0 23943
6852 0 23943
6865 0 23944
6878 0 23944
6891 0 23945
6904 0 23945
6917 0 23946
6930 0 23947
6943 0 23947
6956 0 23947
6969 0 23947
6982 0 23947
6995 0 23946
7008 0 23945
7021 0 23944
7034 0 23943
7047 0 23943
7060 0 23943
7073 0 23943
7086 0 23944
7099 0 23945
7111 0 23946
7124 0 23947
7137 0 23948
7150 0 23949
7163 0 23950
7176 0 23951
7189 0 23952
7202 0 23952
7215 0 23952
7228 0 23953
7241 0 23952
7254 0 23951
7267 0 23950
7280 0 23948
7293 0 23946
7306 0 23945
7319 0 23944
7332 0 23944
7345 0 23945
7358 0 23946
7371 0 23947
7384 0 23948
7397 0 23948
7410 0 23949
7423 0 23949
7436 0 23948
7449 0 23948
7462 0 23947
7475 0 23947
7488 0 23948
7500 0 23949
7513 0 23950
7526 0 23951
7539 0 23952
7552 0 23953
7565 0 23954
7578 0 23953
7591 0 23953
7604 0 23952
7617 0 23951
7630 0 23951
7643 0 23950
7656 0 23949
7669 0 23949
7682 0 23949
7695 0 23949
7708 0 23949
7721 0 23949
7734 0 23949
7747 0 23950
7760 0 23950
7773 0 23950
7786 0 23950
7799 0 23950
7812 0 23950
7825 0 23949
7838 0 23949
7850 0 23949
7863 0 23949
7876 0 23949
7890 0 23949
7903 0 23949
7916 0 23948
7929 0 23949
7941 0 23949
7954 0 23949
7967 0 23949
7980 0 23950
7993 0 23950
8006 0 23950
8020 0 23950
8033 0 23950
8046 0 23950
8059 0 23949
8072 0 23948
8084 0 23948
8097 0 23948
8110 0 23948
8123 0 23949
8136 0 23950
8149 0 23951
8161 0 23952
8174 0 23953
8187 0 23954
8200 0 23955
8213 0 23956
8226 0 23956
8239 0 23956
8252 0 23956
8265 0 23956
8278 0 23955
8291 0 23956
8304 0 23956
8317 0 23956
8330 0 23956
8343 0 23956
8356 0 23956
8369 0 23955
8382 0 23954
8395 0 23954
8408 0 23954
8421 0 23954
8434 0 23954
8447 0 23955
8460 0 23955
8473 0 23956
8486 0 23956
8499 0 23956
8512 0 23957
8524 0 23957
8537 0 23958
8550 0 23958
8563 0 23959
8576 0 23959
8589 0 23960
8602 0 23960
8615 0 23960
8628 0 23961
8641 0 23961
8654 0 23960
8667 0 23960
8680 0 23960
8693 0 23960
8706 0 23959
8719 0 23959
8732 0 23959
8745 0 23960
8758 0 23960
8771 0 23960
8784 0 23961
8797 0 23961
8810 0 23962
8823 0 23962
8835 0 23963
8848 0 23963
8861 0 23963
8874 0 23963
8887 0 23962
8900 0 23961
8913 0 23960
8926 0 23959
8940 0 23958
8953 0 23958
8966 0 23957
8979 0 23957
8992 0 23957
9005 0 23957
9018 0 23956
9031 0 23956
9044 0 23956
9056 0 23956
9069 0 23957
9083 0 23958
9096 0 23959
9108 0 23959
9121 0 23959
9134 0 23959
9147 0 23959
9161 0 23957
9174 0 23956
9187 0 23955
9199 0 23955
9212 0 23956
9225 0 23958
9237 0 23960
9251 0 23962
9264 0 23964
9276 0 23965
9289 0 23966
9302 0 23965
9316 0 23964
9329 0 23963
9342 0 23962
9355 0 23961
9368 0 23961
9381 0 23961
9394 0 23961
9406 0 23963
9419 0 23964
9432 0 23966
9445 0 23967
9458 0 23968
9471 0 23968
9484 0 23968
9497 0 23968
9510 0 23968
9522 0 23968
9535 0 23969
9548 0 23970
9561 0 23971
9574 0 23971
9587 0 23971
9600 0 23971
9613 0 23970
9627 0 23969
9640 0 23967
9653 0 23966
9666 0 23964
9679 0 23963
9692 0 23963
9705 0 23962
9718 0 23961
9731 0 23961
9744 0 23960
9757 0 23959
9770 0 23959
9783 0 23959
9796 0 23961
9809 0 23962
9821 0 23964
9834 0 23966
9847 0 23967
9860 0 23969
9873 0 23970
9886 0 23970
9898 0 23971
9911 0 23971
9924 0 23971
9937 0 23971
9950 0 23972
9963 0 23971
9976 0 23971
9989 0 23971
10002 0 23971
10015 0 23971
10028 0 23971
10041 0 23971
10054 0 23971
10067 0 23972
10080 0 23972
10093 0 23972
10106 0 23972
10119 0 23972
10132 0 23972
10145 0 23972
10158 0 23973
10171 0 23973
10184 0 23973
10197 0 23974
10210 0 23973
10222 0 23973
10235 0 23973
10248 0 23973
10262 0 23973
10275 0 23973
10288 0 23973
10301 0 23973
10314 0 23972
10327 0 23972
10340 0 23972
10353 0 23973
10365 0 23974
10378 0 23975
10391 0 23975
10404 0 23976
10417 0 23976
10430 0 23975
10443 0 23975
10456 0 23974
10469 0 23974
10482 0 23974
10495 0 23974
10508 0 23974
10521 0 23975
10533 0 23976
10546 0 23976
10559 0 23977
10572 0 23978
10585 0 23979
10598 0 23980
10611 0 23980
10624 0 23980
10637 0 23980
10650 0 23981
10663 0 23981
10676 0 23982
10689 0 23983
10701 0 23983
10714 0 23984
10727 0 23984
10740 0 23984
10753 0 23984
10767 0 23983
10780 0 23983
10793 0 23982
10806 0 23980
10819 0 23979
10832 0 23977
10845 0 23975
10858 0 23974
10871 0 23974
10884 0 23975
10897 0 23977
10910 0 23979
10922 0 23981
10935 0 23982
10948 0 23983
10961 0 23983
10974 0 23983
10987 0 23983
11000 0 23982
11013 0 23981
11026 0 23980
11039 0 23980
11052 0 23980
11065 0 23980
11078 0 23981
11091 0 23981
11104 0 23982
11117 0 23982
11130 0 23982
11143 0 23982
11156 0 23982
11169 0 23982
11182 0 23982
11195 0 23982
11208 0 23982
11221 0 23982
11234 0 23982
11247 0 23983
11260 0 23982
11273 0 23982
11286 0 23982
11299 0 23982
11312 0 23981
11325 0 23981
11338 0 23981
11351 0 23980
11364 0 23980
11377 0 23979
11390 0 23979
11403 0 23979
11416 0 23979
11429 0 23980
11441 0 23981
11454 0 23982
11467 0 23983
11480 0 23985
11493 0 23986
11506 0 23988
11518 0 23990
11531 0 23991
11544 0 23991
11557 0 23991
11570 0 23990
11583 0 23988
11598 0 23986
11611 0 23984
11623 0 23982
11636 0 23982
11649 0 23982
11661 0 23984
11674 0 23986
11686 0 23989
11700 0 23991
11713 0 23992
11725 0 23993
11738 0 23994
11751 0 23993
11765 0 23993
11779 0 23992
11792 0 23991
11804 0 23990
11817 0 23989
11830 0 23988
11843 0 23988
11856 0 23988
11869 0 23988
11882 0 23987
11895 0 23987
11908 0 23987
11921 0 23986
11934 0 23986
11947 0 23986
11960 0 23985
11973 0 23985
11986 0 23985
11999 0 23986
12012 0 23986
12025 0 23987
12038 0 23987
12051 0 23987
12064 0 23988
12077 0 23988
12090 0 23989
12102 0 23990
12115 0 23991
12128 0 23992
12141 0 23992
12154 0 23993
12167 0 23993
12180 0 23992
12193 0 23991
12206 0 23991
12219 0 23991
12232 0 23991
12245 0 23992
12258 0 23993
12271 0 23993
12283 0 23993
12296 0 23993
12309 0 23992
12323 0 23991
12336 0 23990
12349 0 23990
12362 0 23990
12375 0 23990
12388 0 23991
12400 0 23992
12413 0 23993
12426 0 23993
12440 0 23994
12453 0 23994
12466 0 23993
12478 0 23993
12491 0 23994
12504 0 23994
12517 0 23995
12529 0 23996
12542 0 23998
12555 0 23999
12567 0 24001
12581 0 24002
12594 0 24004
12606 0 24004
12619 0 24005
12632 0 24005
12645 0 24004
12658 0 24003
12673 0 24002
12686 0 24000
12698 0 23998
12711 0 23997
12724 0 23997
12737 0 23998
12750 0 23999
12763 0 24000
12776 0 24000
12789 0 23999
12802 0 23997
12815 0 23993
12829 0 23990
12842 0 23990
12855 0 23990
12868 0 23989
12883 0 23985
12896 0 23981
12908 0 23976
12925 0 23969
12936 0 23961
12953 0 23950
12966 0 23938
12982 0 23920
12998 0 23910
13014 0 23893
13029 0 23880
13046 0 23862
-32768 -1.31072e+08 -32768
-32768 -1.31072e+08 -32768
-32768 -1.31072e+08 -32768
-32768 -1.31072e+08 -32768
-32768 -1.31072e+08 -32768
-32768 -1.31072e+08 -32768
-32768 -1.31072e+08 -32768
-32768 -1.31072e+08 -32768
-32768 -1.31072e+08 -32768
-32768 -1.31072e+08 -32768
-32768 -1.31072e+08 -32768
-32768 -1.31072e+08 -32768
-32768 -1.31072e+08 -32768
-32768 -1.31072e+08 -32768
-32768 -1.31072e+08 -32768
-32768 -1.31072e+08 -32768
-32768 -1.31072e+08 -32768
-32768 -1.31072e+08 -32768
-32768 -1.31072e+08 -32768
-32768 -1.343488e+08 -32768
-32768 -1.343488e+08 -32768
-32768 -1.343488e+08 -32768
-32768 -1.343488e+08 -32768
-32768 -1.343488e+08 -32768
-32768 -1.343488e+08 -32768
-13009 0 24832
-12997 0 24831
-12984 0 24831
-12971 0 24830
-12952 0 24834
-12939 0 24834
-12926 0 24834
-12914 0 24834
-12901 0 24834
-12888 0 24835
-12875 0 24835
-12862 0 24836
-12849 0 24836
-12836 0 24837
-12824 0 24837
-12811 0 24838
-12798 0 24838
-12785 0 24839
-12772 0 24839
-12759 0 24839
-12747 0 24839
-12734 0 24838
-12721 0 24837
-12709 0 24837
-12696 0 24836
-12684 0 24836
-12671 0 24836
-12658 0 24836
-12645 0 24836
-12632 0 24837
-12619 0 24837
-12606 0 24838
-12594 0 24838
-12581 0 24839
-12568 0 24839
-12555 0 24840
-12542 0 24840
-12529 0 24841
-12517 0 24841
-12504 0 24841
-12491 0 24841
-12478 0 24841
-12466 0 24841
-12453 0 24841
-12440 0 24841
-12427 0 24840
-12415 0 24840
-12402 0 24840
-12389 0 24840
-12376 0 24840
-12364 0 24840
-12351 0 24840
-12338 0 24840
-12325 0 24840
-12313 0 24840
-12300 0 24840
-12287 0 24840
-12274 0 24839
-12262 0 24839
-12249 0 24840
-12236 0 24840
-12223 0 24841
-12210 0 24841
-12197 0 24842
-12185 0 24843
-12172 0 24843
-12159 0 24844
-12146 0 24843
-12133 0 24843
-12121 0 24843
-12108 0 24843
-12095 0 24843
-12083 0 24842
-12070 0 24842
-12057 0 24842
-12044 0 24843
-12031 0 24843
-12018 0 24843
-12006 0 24843
-11993 0 24843
-11980 0 24843
-11967 0 24842
-11955 0 24841
-11942 0 24841
-11929 0 24841
-11916 0 24841
-11904 0 24841
-11891 0 24842
-11878 0 24843
-11865 0 24844
-11852 0 24844
-11839 0 24845
-11827 0 24844
-11814 0 24844
-11801 0 24844
-11789 0 24843
-11776 0 24843
-11763 0 24843
-11750 0 24843
-11738 0 24843
-11725 0 24843
-11712 0 24843
-11699 0 24844
-11686 0 24844
-11674 0 24845
-11661 0 24845
-11648 0 24845
-11635 0 24845
-11622 0 24845
-11609 0 24845
-11596 0 24845
-11584 0 24844
-11571 0 24844
-11559 0 24843
-11546 0 24843
-11533 0 24843
-11521 0 24843
-11508 0 24844
-11495 0 24845
-11482 0 24846
-11469 0 24847
-11456 0 24847
-11443 0 24848
-11430 0 24848
-11417 0 24849
-11404 0 24849
-11392 0 24849
-11379 0 24848
-11367 0 24848
-11354 0 24848
-11341 0 24848
-11328 0 24848
-11316 0 24848
-11303 0 24848
-11290 0 24848
-11277 0 24848
-11265 0 24848
-11252 0 24849
-11239 0 24849
-11226 0 24850
-11213 0 24850
-11200 0 24850
-11187 0 24850
-11174 0 24850
-11162 0 24849
-11149 0 24848
-11137 0 24847
-11124 0 24847
-11111 0 24847
-11099 0 24846
-11086 0 24847
-11073 0 24848
-11060 0 24849
-11047 0 24850
-11035 0 24850
-11022 0 24850
-11009 0 24850
-10996 0 24850
-10983 0 24849
-10971 0 24849
-10958 0 24848
-10945 0 24848
-10933 0 24848
-10920 0 24849
-10907 0 24850
-10894 0 24850
-10881 0 24851
-10868 0 24851
-10855 0 24851
-10842 0 24851
-10830 0 24852
-10817 0 24851
-10804 0 24852
-10791 0 24852
-10779 0 24854
-10766 0 24854
-10753 0 24855
-10740 0 24855
-10728 0 24855
-10715 0 24854
-10702 0 24854
-10689 0 24853
-10676 0 24852
-10664 0 24852
-10651 0 24852
-10638 0 24852
-10625 0 24852
-10613 0 24852
-10600 0 24852
-10587 0 24852
-10574 0 24852
-10562 0 24851
-10549 0 24851
-10536 0 24851
-10523 0 24851
-10511 0 24851
-10498 0 24851
-10485 0 24851
-10472 0 24851
-10459 0 24851
-10447 0 24852
-10434 0 24852
-10421 0 24853
-10408 0 24853
-10395 0 24854
-10382 0 24855
-10370 0 24855
-10357 0 24856
-10344 0 24857
-10331 0 24857
-10318 0 24858
-10305 0 24859
-10293 0 24859
-10280 0 24859
-10267 0 24859
-10254 0 24859
-10241 0 24859
-10229 0 24859
-10216 0 24859
-10203 0 24859
-10190 0 24859
-10178 0 24859
-10165 0 24860
-10152 0 24860
-10139 0 24860
-10126 0 24860
-10114 0 24860
-10101 0 24860
-10088 0 24859
-10075 0 24859
-10062 0 24859
-10050 0 24859
-10037 0 24858
-10024 0 24858
-10012 0 24858
-9999 0 24858
-9986 0 24858
-9973 0 24858
-9961 0 24858
-9948 0 24858
-9935 0 24858
-9923 0 24857
-9910 0 24857
-9897 0 24857
-9884 0 24856
-9871 0 24856
-9859 0 24856
-9846 0 24856
-9833 0 24857
-9820 0 24857
-9808 0 24857
-9795 0 24858
-9782 0 24858
-9769 0 24858
-9756 0 24859
-9744 0 24859
-9731 0 24859
-9718 0 24859
-9705 0 24859
-9692 0 24858
-9680 0 24858
-9667 0 24858
-9654 0 24858
-9642 0 24857
-9629 0 24857
-9616 0 24857
-9603 0 24857
-9590 0 24857
-9578 0 24858
-9565 0 24858
-9552 0 24859
-9539 0 24861
-9526 0 24861
-9513 0 24862
-9500 0 24863
-9488 0 24862
-9475 0 24862
-9462 0 24862
-9449 0 24861
-9437 0 24861
-9424 0 24861
-9411 0 24860
-9399 0 24861
-9386 0 24860
-9373 0 24861
-9360 0 24861
-9347 0 24861
-9334 0 24861
-9321 0 24862
-9309 0 24863
-9296 0 24863
-9283 0 24864
-9270 0 24865
-9257 0 24865
-9244 0 24865
-9232 0 24865
-9219 0 24865
-9206 0 24864
-9194 0 24863
-9181 0 24862
-9168 0 24861
-9156 0 24861
-9143 0 24861
-9130 0 24862
-9117 0 24863
-9105 0 24863
-9092 0 24863
-9079 0 24864
-9066 0 24864
-9053 0 24864
-9040 0 24863
-9028 0 24863
-9015 0 24863
-9002 0 24862
-8989 0 24862
-8977 0 24862
-8964 0 24862
-8951 0 24862
-8938 0 24863
-8926 0 24863
-8913 0 24864
-8900 0 24864
-8887 0 24864
-8874 0 24865
-8862 0 24865
-8849 0 24866
-8836 0 24866
-8823 0 24867
-8810 0 24867
-8797 0 24867
-8784 0 24868
-8772 0 24868
-8759 0 24868
-8746 0 24867
-8733 0 24867
-8721 0 24868
-8708 0 24868
-8695 0 24869
-8682 0 24870
-8670 0 24871
-8657 0 24871
-8644 0 24872
-8631 0 24872
-8618 0 24872
-8605 0 24872
-8593 0 24872
-8580 0 24871
-8567 0 24871
-8554 0 24870
-8542 0 24870
-8529 0 24870
-8516 0 24870
-8503 0 24869
-8490 0 24869
-8478 0 24868
-8465 0 24867
-8452 0 24866
-8440 0 24866
-8427 0 24865
-8415 0 24864
-8402 0 24864
-8389 0 24864
-8376 0 24864
-8363 0 24865
-8351 0 24865
-8338 0 24866
-8325 0 24866
-8312 0 24867
-8299 0 24867
-8287 0 24867
-8274 0 24867
-8261 0 24868
-8248 0 24868
-8235 0 24868
-8223 0 24868
-8210 0 24868
-8197 0 24868
-8184 0 24868
-8171 0 24868
-8159 0 24869
-8146 0 24870
-8133 0 24871
-8120 0 24871
-8107 0 24872
-8094 0 24872
-8082 0 24872
-8069 0 24871
-8056 0 24871
-8044 0 24871
-8031 0 24871
-8018 0 24872
-8005 0 24872
-7992 0 24872
-7980 0 24873
-7967 0 24873
-7954 0 24873
-7941 0 24872
-7928 0 24872
-7916 0 24871
-7903 0 24870
-7890 0 24870
-7877 0 24870
-7865 0 24870
-7852 0 24870
-7839 0 24871
-7826 0 24872
-7813 0 24873
-7801 0 24873
-7788 0 24874
-7775 0 24874
-7762 0 24874
-7750 0 24874
-7737 0 24875
-7724 0 24875
-7711 0 24875
-7698 0 24875
-7686 0 24875
-7673 0 24876
-7660 0 24876
-7647 0 24877
-7634 0 24877
-7621 0 24878
-7608 0 24878
-7596 0 24878
-7583 0 24878
-7570 0 24877
-7558 0 24876
-7545 0 24875
-7532 0 24875
-7520 0 24875
-7507 0 24875
-7494 0 24874
-7481 0 24875
-7468 0 24874
-7456 0 24874
-7443 0 24874
-7430 0 24873
-7418 0 24873
-7405 0 24873
-7392 0 24873
-7379 0 24873
-7367 0 24873
-7354 0 24873
-7341 0 24873
-7328 0 24873
-7315 0 24873
-7302 0 24873
-7289 0 24873
-7277 0 24874
-7264 0 24874
-7251 0 24874
-7238 0 24874
-7226 0 24874
-7213 0 24874
-7200 0 24873
-7188 0 24873
-7175 0 24874
-7162 0 24875
-7149 0 24876
-7136 0 24878
-7123 0 24879
-7110 0 24880
-7097 0 24881
-7085 0 24881
-7072 0 24882
-7059 0 24882
-7046 0 24883
-7034 0 24883
-7021 0 24883
-7008 0 24883
-6995 0 24883
-6982 0 24882
-6969 0 24881
-6957 0 24880
-6944 0 24878
-6932 0 24877
-6919 0 24875
-6906 0 24874
-6894 0 24873
-6881 0 24873
-6868 0 24873
-6856 0 24873
-6843 0 24874
-6830 0 24875
-6817 0 24876
-6804 0 24877
-6791 0 24878
-6778 0 24879
-6765 0 24880
-6753 0 24880
-6740 0 24880
-6727 0 24881
-6714 0 24880
-6702 0 24879
-6689 0 24879
-6676 0 24878
-6663 0 24878
-6651 0 24878
-6638 0 24878
-6625 0 24878
-6612 0 24878
-6599 0 24878
-6587 0 24878
-6574 0 24878
-6561 0 24879
-6548 0 24879
-6535 0 24880
-6522 0 24881
-6510 0 24882
-6497 0 24883
-6484 0 24884
-6471 0 24885
-6458 0 24886
-6446 0 24886
-6433 0 24886
-6420 0 24885
-6408 0 24884
-6395 0 24883
-6382 0 24883
-6369 0 24883
-6356 0 24883
-6344 0 24882
-6331 0 24883
-6318 0 24883
-6305 0 24883
-6292 0 24882
-6280 0 24882
-6267 0 24882
-6254 0 24882
-6241 0 24881
-6229 0 24880
-6216 0 24880
-6203 0 24880
-6191 0 24881
-6178 0 24882
-6165 0 24882
-6152 0 24883
-6139 0 24884
-6126 0 24884
-6114 0 24884
-6101 0 24884
-6088 0 24884
-6075 0 24884
-6062 0 24884
-6050 0 24884
-6037 0 24885
-6024 0 24886
-6011 0 24886
-5999 0 24886
-5986 0 24886
-5973 0 24886
-5960 0 24886
-5947 0 24886
-5934 0 24886
-5922 0 24886
-5909 0 24886
-5896 0 24885
-5883 0 24885
-5871 0 24885
-5858 0 24885
-5845 0 24885
-5832 0 24887
-5819 0 24887
-5807 0 24889
-5794 0 24890
-5781 0 24890
-5768 0 24890
-5756 0 24890
-5743 0 24890
-5730 0 24889
-5717 0 24888
-5704 0 24888
-5692 0 24888
-5679 0 24887
-5666 0 24887
-5653 0 24888
-5641 0 24888
-5628 0 24888
-5615 0 24888
-5602 0 24889
-5590 0 24889
-5577 0 24889
-5564 0 24889
-5551 0 24889
-5538 0 24890
-5525 0 24890
-5513 0 24889
-5500 0 24890
-5487 0 24890
-5474 0 24890
-5462 0 24891
-5449 0 24891
-5436 0 24890
-5423 0 24890
-5411 0 24889
-5398 0 24888
-5385 0 24888
-5372 0 24888
-5359 0 24886
-5347 0 24886
-5334 0 24887
-5321 0 24889
-5308 0 24889
-5295 0 24891
-5283 0 24892
-5270 0 24893
-5257 0 24894
-5244 0 24895
-5232 0 24895
-5219 0 24895
-5206 0 24894
-5193 0 24893
-5181 0 24893
-5168 0 24893
-5155 0 24892
-5142 0 24892
-5129 0 24891
-5116 0 24891
-5104 0 24891
-5091 0 24892
-5078 0 24892
-5065 0 24893
-5052 0 24893
-5040 0 24893
-5027 0 24894
-5014 0 24894
-5001 0 24894
-4989 0 24894
-4976 0 24894
-4963 0 24895
-4950 0 24895
-4938 0 24894
-4925 0 24894
-4912 0 24895
-4899 0 24895
-4886 0 24895
-4874 0 24897
-4861 0 24898
-4848 0 24898
-4835 0 24899
-4822 0 24900
-4809 0 24900
-4797 0 24901
-4784 0 24901
-4771 0 24901
-4758 0 24901
-4745 0 24900
-4733 0 24900
-4720 0 24900
-4707 0 24899
-4694 0 24899
-4682 0 24899
-4669 0 24899
-4656 0 24899
-4643 0 24900
-4631 0 24900
-4618 0 24899
-4605 0 24899
-4593 0 24899
-4580 0 24898
-4567 0 24898
-4554 0 24898
-4541 0 24898
-4529 0 24898
-4516 0 24898
-4503 0 24898
-4490 0 24899
-4477 0 24900
-4464 0 24900
-4452 0 24902
-4439 0 24903
-4426 0 24903
-4413 0 24903
-4400 0 24904
-4388 0 24904
-4375 0 24904
-4362 0 24904
-4349 0 24904
-4337 0 24905
-4324 0 24906
-4311 0 24908
-4298 0 24910
-4285 0 24911
-4272 0 24913
-4259 0 24914
-4246 0 24914
-4233 0 24914
-4221 0 24914
-4208 0 24912
-4196 0 24909
-4183 0 24906
-4171 0 24904
-4158 0 24904
-4145 0 24904
-4132 0 24904
-4119 0 24904
-4107 0 24904
-4094 0 24905
-4081 0 24905
-4068 0 24905
-4055 0 24905
-4042 0 24905
-4030 0 24905
-4017 0 24905
-4004 0 24903
-3991 0 24902
-3979 0 24902
-3966 0 24902
-3953 0 24904
-3941 0 24905
-3927 0 24906
-3914 0 24906
-3902 0 24907
-3889 0 24908
-3876 0 24909
-3863 0 24909
-3851 0 24909
-3838 0 24908
-3825 0 24908
-3813 0 24907
-3800 0 24908
-3787 0 24908
-3774 0 24908
-3761 0 24908
-3748 0 24909
-3736 0 24909
-3723 0 24909
-3710 0 24909
-3698 0 24908
-3685 0 24907
-3672 0 24907
-3659 0 24907
-3646 0 24906
-3634 0 24906
-3621 0 24906
-3608 0 24906
-3595 0 24905
-3582 0 24906
-3570 0 24907
-3557 0 24909
-3544 0 24911
-3531 0 24911
-3518 0 24911
-3506 0 24912
-3493 0 24912
-3480 0 24912
-3467 0 24912
-3454 0 24912
-3442 0 24912
-3429 0 24912
-3416 0 24913
-3403 0 24913
-3391 0 24904
-3379 0 24903
-3367 0 24902
-3354 0 24903
-3339 0 24913
-3327 0 24914
-3314 0 24914
-3301 0 24914
-3288 0 24914
-3276 0 24915
-3263 0 24914
-3250 0 24914
-3237 0 24915
-3224 0 24914
-3212 0 24913
-3199 0 24913
-3186 0 24913
-3173 0 24913
-3161 0 24914
-3148 0 24915
-3135 0 24915
-3122 0 24916
-3112 0 24902
-3096 0 24917
-3084 0 24917
-3071 0 24915
-3058 0 24914
-3046 0 24912
-3033 0 24911
-3020 0 24910
-3007 0 24911
-2995 0 24911
-2982 0 24912
-2969 0 24913
-2956 0 24915
-2943 0 24917
-2930 0 24919
-2918 0 24920
-2905 0 24919
-2892 0 24919
-2879 0 24918
-2867 0 24917
-2854 0 24917
-2841 0 24916
-2828 0 24916
-2815 0 24915
-2803 0 24915
-2790 0 24915
-2777 0 24916
-2764 0 24917
-2751 0 24918
-2739 0 24921
-2726 0 24922
-2713 0 24923
-2700 0 24923
-2687 0 24923
-2675 0 24923
-2662 0 24923
-2649 0 24923
-2637 0 24922
-2624 0 24922
-2611 0 24921
-2598 0 24921
-2585 0 24920
-2573 0 24919
-2560 0 24919
-2547 0 24918
-2534 0 24918
-2522 0 24918
-2509 0 24918
-2496 0 24918
-2483 0 24919
-2470 0 24919
-2457 0 24919
-2444 0 24920
-2432 0 24921
-2419 0 24922
-2406 0 24922
-2394 0 24923
-2381 0 24922
-2368 0 24922
-2355 0 24921
-2343 0 24921
-2330 0 24921
-2317 0 24921
-2304 0 24920
-2291 0 24921
-2279 0 24921
-2266 0 24922
-2253 0 24923
-2240 0 24924
-2227 0 24926
-2215 0 24927
-2202 0 24928
-2189 0 24929
-2176 0 24930
-2163 0 24930
-2151 0 24930
-2138 0 24929
-2125 0 24929
-2113 0 24928
-2100 0 24928
-2087 0 24928
-2074 0 24927
-2061 0 24927
-2048 0 24927
-2036 0 24928
-2023 0 24928
-2010 0 24928
-1997 0 24927
-1985 0 24927
-1972 0 24925
-1959 0 24925
-1946 0 24924
-1934 0 24926
-1921 0 24927
-1908 0 24929
-1895 0 24930
-1883 0 24931
-1870 0 24932
-1857 0 24932
-1844 0 24932
-1831 0 24932
-1818 0 24932
-1806 0 24932
-1793 0 24931
-1780 0 24931
-1767 0 24931
-1754 0 24931
-1742 0 24931
-1729 0 24931
-1716 0 24930
-1703 0 24930
-1690 0 24928
-1678 0 24926
-1665 0 24925
-1652 0 24923
-1640 0 24921
-1627 0 24920
-1614 0 24920
-1601 0 24921
-1588 0 24922
-1576 0 24923
-1563 0 24925
-1550 0 24928
-1537 0 24929
-1525 0 24928
-1512 0 24928
-1499 0 24927
-1486 0 24925
-1473 0 24925
-1461 0 24925
-1448 0 24925
-1435 0 24925
-1422 0 24926
-1409 0 24928
-1397 0 24928
-1384 0 24929
-1371 0 24929
-1358 0 24929
-1346 0 24930
-1333 0 24929
-1320 0 24929
-1307 0 24929
-1294 0 24929
-1282 0 24930
-1269 0 24930
-1256 0 24931
-1243 0 24933
-1231 0 24934
-1218 0 24935
-1205 0 24935
-1192 0 24933
-1180 0 24932
-1167 0 24931
-1154 0 24930
-1141 0 24929
-1128 0 24928
-1115 0 24929
-1103 0 24929
-1090 0 24929
-1077 0 24930
-1065 0 24931
-1052 0 24930
-1039 0 24931
-1026 0 24931
-1014 0 24931
-1001 0 24931
-988 0 24930
-975 0 24930
-962 0 24930
-949 0 24930
-936 0 24930
-924 0 24930
-911 0 24930
-898 0 24931
-885 0 24932
-873 0 24933
-860 0 24934
-847 0 24936
-834 0 24937
-821 0 24940
-809 0 24937
-796 0 24931
-783 0 24929
-771 0 24929
-758 0 24930
-745 0 24930
-732 0 24931
-720 0 24932
-707 0 24933
-694 0 24933
-681 0 24933
-668 0 24934
-655 0 24934
-643 0 24935
-630 0 24935
-617 0 24935
-604 0 24934
-592 0 24935
-579 0 24935
-566 0 24935
-553 0 24935
-540 0 24936
-527 0 24936
-515 0 24936
-502 0 24936
-489 0 24936
-476 0 24936
-464 0 24929
-451 0 24926
-438 0 24925
-426 0 24925
-413 0 24925
-400 0 24926
-387 0 24927
-374 0 24928
-362 0 24930
-349 0 24931
-336 0 24932
-323 0 24932
-310 0 24933
-298 0 24933
-285 0 24934
-272 0 24935
-259 0 24936
-246 0 24937
-234 0 24938
-221 0 24939
-208 0 24940
-195 0 24940
-183 0 24940
-170 0 24941
-157 0 24941
-144 0 24941
-131 0 24942
-121 0 24926
-107 0 24926
-93 0 24942
-80 0 24942
-68 0 24943
-55 0 24943
-42 0 24943
-29 0 24943
-16 0 24943
-4 0 24943
7 0 24944
20 0 24943
33 0 24943
46 0 24942
58 0 24942
71 0 24941
84 0 24940
97 0 24940
110 0 24939
122 0 24938
135 0 24937
148 0 24936
161 0 24935
173 0 24934
186 0 24928
199 0 24928
212 0 24929
224 0 24946
237 0 24930
250 0 24941
263 0 24945
275 0 24947
288 0 24947
301 0 24947
314 0 24947
327 0 24947
339 0 24946
352 0 24945
365 0 24945
378 0 24945
391 0 24945
403 0 24946
416 0 24947
429 0 24947
442 0 24948
454 0 24948
467 0 24949
480 0 24948
493 0 24947
506 0 24945
519 0 24942
531 0 24940
544 0 24938
557 0 24936
570 0 24934
582 0 24938
595 0 24943
608 0 24948
620 0 24950
633 0 24949
646 0 24948
659 0 24948
672 0 24947
684 0 24946
697 0 24946
710 0 24946
723 0 24946
736 0 24946
748 0 24947
761 0 24948
774 0 24949
787 0 24948
800 0 24948
812 0 24947
825 0 24945
838 0 24944
851 0 24944
864 0 24944
876 0 24946
889 0 24949
902 0 24952
914 0 24953
927 0 24954
940 0 24955
953 0 24955
966 0 24955
978 0 24954
991 0 24953
1004 0 24952
1017 0 24950
1030 0 24948
1043 0 24946
1055 0 24946
1068 0 24946
1081 0 24947
1093 0 24948
1106 0 24949
1119 0 24949
1132 0 24950
1145 0 24949
1157 0 24949
1170 0 24949
1183 0 24949
1196 0 24950
1209 0 24951
1221 0 24952
1234 0 24953
1247 0 24953
1260 0 24952
1272 0 24951
1285 0 24949
1298 0 24948
1311 0 24948
1324 0 24947
1337 0 24947
1349 0 24946
1362 0 24945
1375 0 24945
1388 0 24944
1401 0 24944
1413 0 24943
1426 0 24944
1439 0 24945
1451 0 24947
1464 0 24948
1477 0 24950
1490 0 24953
1502 0 24955
1515 0 24957
1528 0 24958
1540 0 24958
1553 0 24957
1566 0 24956
1579 0 24954
1592 0 24953
1604 0 24952
1617 0 24952
1630 0 24952
1643 0 24952
1656 0 24953
1669 0 24954
1681 0 24955
1694 0 24956
1707 0 24957
1720 0 24958
1732 0 24958
1745 0 24959
1758 0 24959
1771 0 24960
1784 0 24961
1797 0 24962
1809 0 24962
1822 0 24962
1835 0 24962
1847 0 24961
1860 0 24961
1873 0 24962
1885 0 24962
1898 0 24963
1911 0 24963
1924 0 24964
1937 0 24964
1950 0 24964
1962 0 24964
1975 0 24964
1988 0 24964
2001 0 24964
2014 0 24964
2027 0 24963
2039 0 24963
2052 0 24962
2065 0 24961
2078 0 24960
2090 0 24959
2103 0 24959
2116 0 24959
2129 0 24959
2142 0 24957
2154 0 24956
2167 0 24956
2180 0 24955
2193 0 24956
2205 0 24956
2218 0 24957
2231 0 24958
2244 0 24960
2256 0 24962
2269 0 24963
2282 0 24963
2295 0 24962
2308 0 24962
2320 0 24961
2333 0 24960
2346 0 24959
2359 0 24959
2372 0 24959
2384 0 24960
2397 0 24960
2410 0 24959
2423 0 24958
2436 0 24957
2448 0 24956
2461 0 24955
2474 0 24954
2487 0 24954
2500 0 24954
2512 0 24955
2525 0 24955
2538 0 24955
2551 0 24956
2564 0 24956
2576 0 24955
2589 0 24953
2602 0 24951
2615 0 24950
2628 0 24950
2640 0 24953
2653 0 24955
2666 0 24958
2678 0 24960
2691 0 24962
2704 0 24965
2717 0 24966
2729 0 24967
2742 0 24968
2755 0 24969
2768 0 24969
2780 0 24969
2793 0 24969
2806 0 24967
2819 0 24967
2832 0 24966
2844 0 24965
2857 0 24964
2870 0 24962
2883 0 24961
2896 0 24960
2909 0 24958
2922 0 24956
2934 0 24962
2946 0 24974
2957 0 24983
2973 0 24947
2986 0 24955
2998 0 24964
3010 0 24981
3022 0 24993
3074 0 24060
3088 0 24050
3099 0 24030
3110 0 24025
3092 0 24853
3105 0 24852
3119 0 24871
3131 0 24853
3144 0 24845
3194 0 23984
3208 0 23980
3222 0 23971
3234 0 23967
3250 0 23957
3261 0 23953
3275 0 23947
3287 0 23942
3300 0 23939
3313 0 23935
3325 0 23934
3339 0 23928
3352 0 23925
3364 0 23922
3377 0 23920
3390 0 23919
3403 0 23919
3416 0 23919
3429 0 23918
3443 0 23918
3456 0 23918
3469 0 23918
3482 0 23919
3495 0 23919
3508 0 23919
3521 0 23918
3533 0 23918
3546 0 23917
3559 0 23916
3572 0 23915
3585 0 23915
3598 0 23915
3611 0 23915
3624 0 23916
3637 0 23917
3650 0 23918
3663 0 23919
3676 0 23919
3689 0 23920
3702 0 23920
3715 0 23919
3728 0 23919
3742 0 23919
3755 0 23918
3767 0 23918
3780 0 23918
3793 0 23918
3806 0 23918
3819 0 23918
3832 0 23918
3845 0 23917
3858 0 23917
3871 0 23917
3884 0 23917
3897 0 23918
3910 0 23918
3922 0 23919
3935 0 23920
3948 0 23920
3961 0 23921
3974 0 23920
3987 0 23920
4000 0 23920
4013 0 23919
4026 0 23918
4039 0 23918
4052 0 23918
4065 0 23918
4078 0 23919
4091 0 23920
4104 0 23920
4117 0 23921
4130 0 23922
4143 0 23922
4156 0 23922
4169 0 23922
4182 0 23922
4195 0 23921
4208 0 23921
4221 0 23920
4234 0 23920
4247 0 23920
4260 0 23920
4273 0 23920
4286 0 23920
4299 0 23921
4312 0 23921
4325 0 23920
4337 0 23920
4350 0 23920
4363 0 23920
4376 0 23921
4389 0 23922
4402 0 23923
4415 0 23924
4428 0 23925
4441 0 23925
4454 0 23925
4467 0 23925
4480 0 23924
4493 0 23923
4506 0 23923
4519 0 23923
4532 0 23923
4545 0 23924
4558 0 23925
4570 0 23927
4583 0 23928
4596 0 23928
4609 0 23929
4622 0 23928
4635 0 23928
4648 0 23927
4661 0 23926
4674 0 23925
4687 0 23924
4700 0 23923
4713 0 23923
4726 0 23923
4739 0 23924
4752 0 23924
4765 0 23924
4778 0 23925
4791 0 23925
4804 0 23925
4817 0 23925
4830 0 23924
4843 0 23924
4856 0 23923
4869 0 23923
4882 0 23923
4895 0 23923
4908 0 23923
4921 0 23924
4934 0 23925
4947 0 23926
4960 0 23926
4973 0 23927
4986 0 23927
4999 0 23927
5012 0 23927
5025 0 23927
5038 0 23925
5051 0 23924
5064 0 23924
5076 0 23924
5089 0 23925
5102 0 23926
5115 0 23927
5128 0 23928
5141 0 23929
5154 0 23929
5167 0 23930
5180 0 23930
5193 0 23930
5206 0 23930
5218 0 23930
5232 0 23930
5244 0 23930
5258 0 23930
5271 0 23930
5284 0 23930
5297 0 23929
5310 0 23928
5323 0 23927
5336 0 23927
5349 0 23926
5362 0 23926
5375 0 23926
5388 0 23925
5401 0 23925
5414 0 23925
5427 0 23925
5440 0 23925
5452 0 23926
5465 0 23927
5478 0 23928
5491 0 23929
5504 0 23931
5517 0 23932
5530 0 23933
5543 0 23934
5556 0 23934
5569 0 23934
5582 0 23934
5595 0 23933
5608 0 23932
5621 0 23931
5634 0 23931
5647 0 23931
5660 0 23932
5673 0 23932
5686 0 23933
5699 0 23934
5711 0 23935
5724 0 23936
5737 0 23936
5750 0 23937
5763 0 23937
5776 0 23937
5789 0 23937
5802 0 23936
5815 0 23935
5828 0 23934
5841 0 23934
5854 0 23934
5867 0 23933
5880 0 23934
5893 0 23934
5906 0 23934
5919 0 23935
5932 0 23935
5945 0 23935
5958 0 23935
5971 0 23935
5984 0 23935
5997 0 23934
6010 0 23933
6023 0 23932
6036 0 23931
6049 0 23931
6062 0 23931
6075 0 23932
6088 0 23934
6101 0 23935
6113 0 23937
6126 0 23938
6139 0 23938
6152 0 23938
6165 0 23938
6178 0 23937
6191 0 23937
6204 0 23937
6217 0 23937
6230 0 23937
6243 0 23938
6256 0 23938
6269 0 23939
6282 0 23940
6294 0 23941
6307 0 23941
6321 0 23941
6334 0 23941
6347 0 23941
6360 0 23941
6373 0 23941
6385 0 23941
6398 0 23941
6411 0 23942
6424 0 23943
6437 0 23944
6450 0 23945
6463 0 23946
6476 0 23946
6489 0 23946
6502 0 23946
6515 0 23945
6528 0 23944
6541 0 23943
6554 0 23943
6567 0 23942
6580 0 23942
6593 0 23942
6606 0 23942
6619 0 23943
6632 0 23943
6645 0 23943
6657 0 23944
6670 0 23944
6683 0 23943
6696 0 23943
6709 0 23943
6723 0 23942
6736 0 23943
6748 0 23943
6761 0 23944
6774 0 23944
6787 0 23944
6800 0 23944
6814 0 23944
6827 0 23943
6839 0 23943
6852 0 23943
6865 0 23944
6878 0 23945
6891 0 23946
6904 0 23946
6917 0 23947
6930 0 23947
6943 0 23946
6956 0 23945
6969 0 23944
6982 0 23942
6995 0 23941
7008 0 23940
7021 0 23939
7034 0 23938
7047 0 23937
7060 0 23937
7073 0 23937
7086 0 23938
7099 0 23939
7112 0 23940
7125 0 23941
7138 0 23942
7151 0 23943
7164 0 23943
7177 0 23944
7190 0 23945
7203 0 23946
7216 0 23946
7229 0 23946
7242 0 23946
7254 0 23946
7267 0 23945
7280 0 23944
7293 0 23944
7306 0 23943
7319 0 23944
7332 0 23944
7345 0 23945
7358 0 23946
7371 0 23947
7384 0 23947
7397 0 23948
7409 0 23948
7422 0 23949
7435 0 23949
7448 0 23949
7461 0 23949
7475 0 23949
7488 0 23949
7501 0 23950
7514 0 23950
7526 0 23951
7539 0 23951
7552 0 23951
7565 0 23950
7578 0 23950
7591 0 23950
7604 0 23949
7617 0 23949
7630 0 23950
7643 0 23950
7656 0 23949
7669 0 23950
7682 0 23950
7695 0 23950
7708 0 23951
7721 0 23951
7734 0 23951
7746 0 23951
7759 0 23951
7772 0 23951
7786 0 23951
7799 0 23951
7812 0 23952
7825 0 23952
7838 0 23952
7850 0 23952
7863 0 23952
7876 0 23951
7889 0 23951
7902 0 23951
7915 0 23952
7928 0 23953
7941 0 23954
7954 0 23955
7967 0 23956
7980 0 23957
7992 0 23958
8005 0 23958
8018 0 23958
8031 0 23958
8044 0 23958
8057 0 23957
8070 0 23957
8083 0 23956
8096 0 23956
8109 0 23956
8122 0 23955
8136 0 23955
8149 0 23955
8162 0 23955
8175 0 23955
8188 0 23955
8201 0 23955
8214 0 23954
8226 0 23953
8239 0 23954
8252 0 23954
8265 0 23955
8278 0 23956
8291 0 23956
8304 0 23957
8317 0 23957
8330 0 23956
8343 0 23956
8356 0 23957
8369 0 23957
8382 0 23957
8395 0 23958
8408 0 23959
8420 0 23959
8433 0 23960
8446 0 23961
8459 0 23962
8472 0 23963
8485 0 23963
8498 0 23964
8511 0 23965
8524 0 23965
8537 0 23966
8550 0 23965
8563 0 23965
8576 0 23964
8589 0 23963
8602 0 23961
8615 0 23960
8628 0 23960
8641 0 23960
8654 0 23961
8667 0 23961
8680 0 23962
8693 0 23963
8706 0 23963
8719 0 23962
8732 0 23962
8745 0 23961
8758 0 23960
8771 0 23958
8784 0 23957
8797 0 23956
8810 0 23955
8823 0 23955
8836 0 23956
8849 0 23957
8862 0 23958
8875 0 23959
8888 0 23960
8900 0 23962
8913 0 23962
8926 0 23963
8939 0 23963
8952 0 23963
8965 0 23963
8978 0 23963
8991 0 23962
9004 0 23962
9017 0 23961
9030 0 23961
9043 0 23960
9056 0 23960
9069 0 23960
9082 0 23960
9095 0 23959
9108 0 23959
9121 0 23959
9134 0 23959
9147 0 23959
9160 0 23960
9173 0 23960
9186 0 23961
